0.055852 0.065137 0.044031 
0.085622 0.080480 0.058715 
0.043824 0.063987 0.056628 
0.084734 0.074448 0.074489 
0.090191 0.063397 0.065664 
0.074905 0.065378 0.084875 
0.101638 0.071299 0.072173 
0.065423 0.056460 0.064594 
0.068354 0.070296 0.084547 
0.082436 0.076011 0.066832 
0.099376 0.088880 0.046726 
0.069071 0.058975 0.072100 
0.082877 0.072468 0.079532 
0.074342 0.076736 0.055426 
0.037305 0.069051 0.044019 
0.047968 0.075627 0.073300 
0.033692 0.076261 0.041883 
0.075550 0.053475 0.052563 
0.060084 0.058635 0.049123 
0.077289 0.052950 0.054210 
0.065314 0.059663 0.071833 
0.074491 0.076616 0.044727 
0.053376 0.075798 0.051039 
0.098708 0.064623 0.061009 
0.091299 0.076053 0.078984 
0.032117 0.081409 0.043167 
0.101434 0.074167 0.077571 
0.082719 0.053268 0.056162 
0.087894 0.073491 0.081582 
0.054600 0.065050 0.074799 
0.096434 0.067323 0.046526 
0.090970 0.057245 0.054744 
0.032727 0.080219 0.049397 
0.100754 0.082519 0.043273 
0.097380 0.065262 0.066966 
0.076846 0.070998 0.040919 
0.101522 0.079010 0.044340 
0.048188 0.079173 0.063303 
0.046724 0.068480 0.069270 
0.101632 0.070223 0.069055 
0.035429 0.089261 0.044563 
0.071639 0.075273 0.059749 
0.042759 0.074718 0.039128 
0.093468 0.088242 0.051619 
0.084766 0.068947 0.083207 
0.097856 0.068956 0.077014 
0.066385 0.070233 0.084691 
0.041376 0.069082 0.041067 
0.060301 0.073525 0.060710 
0.089550 0.064834 0.069306 
0.104521 0.082220 0.058550 
0.093696 0.063317 0.048732 
0.074289 0.074998 0.064204 
0.100988 0.068463 0.066332 
0.060372 0.070295 0.046174 
0.089787 0.083156 0.058757 
0.094365 0.071935 0.084418 
0.032782 0.079600 0.041732 
0.050909 0.074196 0.077459 
0.091497 0.067084 0.079736 
0.103421 0.083631 0.051206 
0.069047 0.073464 0.046154 
0.090221 0.082380 0.039547 
0.048302 0.077236 0.040706 
0.100896 0.074652 0.079102 
0.064615 0.055237 0.055623 
0.100368 0.078786 0.042934 
0.072425 0.075272 0.061040 
0.049230 0.079482 0.042239 
0.048149 0.069411 0.072850 
0.068361 0.057471 0.048208 
0.035184 0.074641 0.053382 
0.055614 0.065356 0.076907 
0.088490 0.066518 0.078547 
0.058639 0.061569 0.070690 
0.048443 0.065551 0.067446 
0.080648 0.072474 0.039772 
0.103253 0.085538 0.053715 
0.037597 0.079999 0.057073 
0.055095 0.058342 0.053908 
0.091008 0.082437 0.062015 
0.038584 0.081056 0.057481 
0.074448 0.062015 0.076546 
0.065656 0.071223 0.082275 
0.043116 0.083090 0.039692 
0.057666 0.059929 0.047817 
0.048889 0.069656 0.040521 
0.084808 0.083520 0.041883 
0.076988 0.069664 0.040847 
0.053025 0.076345 0.049679 
0.044028 0.076574 0.067287 
0.069622 0.054800 0.062778 
0.097006 0.089218 0.051250 
0.092711 0.064697 0.044531 
0.087296 0.080806 0.060158 
0.092405 0.081435 0.065602 
0.088656 0.086205 0.041754 
0.097120 0.085296 0.063670 
0.082169 0.059015 0.064936 
0.080690 0.079759 0.054491 
0.095629 0.062681 0.053076 
0.075604 0.062982 0.042571 
0.099994 0.073158 0.079616 
0.052581 0.076958 0.048362 
0.073716 0.062894 0.079496 
0.060859 0.073826 0.067167 
0.037978 0.078345 0.039043 
0.091296 0.079801 0.067334 
0.096397 0.088502 0.054465 
0.049730 0.061370 0.046936 
0.072751 0.072562 0.073771 
0.089861 0.072450 0.084194 
0.066668 0.068743 0.044797 
0.040780 0.066966 0.056540 
0.078646 0.071480 0.080169 
0.053147 0.065982 0.042807 
0.032350 0.083171 0.047518 
0.077018 0.069226 0.084211 
0.036265 0.082783 0.053840 
0.088232 0.060009 0.046184 
0.037705 0.074832 0.039827 
0.039880 0.088849 0.049081 
0.039469 0.075588 0.061197 
0.050900 0.060286 0.049299 
0.038307 0.067368 0.045038 
0.080851 0.054210 0.051331 
0.034568 0.072147 0.049324 
0.051427 0.074089 0.041688 
0.076367 0.077899 0.053648 
0.045129 0.069068 0.067323 
0.093393 0.061783 0.050623 
0.093772 0.084020 0.062690 
0.077997 0.077436 0.058498 
0.096683 0.069757 0.043849 
0.053279 0.062414 0.067333 
0.091245 0.066603 0.077832 
0.051801 0.068335 0.077222 
0.096829 0.075036 0.041123 
0.084392 0.084383 0.048328 
0.039037 0.074219 0.039619 
0.035908 0.085126 0.051616 
0.089929 0.064456 0.042896 
0.102181 0.070168 0.064665 
0.042420 0.080740 0.061065 
0.083532 0.082994 0.050100 
0.046452 0.066561 0.066020 
0.096513 0.083548 0.066182 
0.064190 0.057506 0.066257 
0.046660 0.083974 0.050201 
0.033797 0.079324 0.040815 
0.032816 0.084674 0.043274 
0.057290 0.058439 0.062143 
0.059251 0.060779 0.046915 
0.101530 0.087580 0.053878 
0.102099 0.077241 0.046286 
0.070852 0.073780 0.067251 
0.069524 0.075152 0.054682 
0.033938 0.087039 0.046571 
0.103567 0.084269 0.052621 
0.069448 0.070537 0.083800 
0.081876 0.057380 0.046483 
0.090753 0.063768 0.043887 
0.043974 0.088545 0.045178 
0.040821 0.066200 0.043611 
0.100133 0.068161 0.069517 
0.050426 0.059902 0.053259 
0.098929 0.064788 0.058199 
0.045256 0.080476 0.062041 
0.059900 0.074003 0.065940 
0.083692 0.070360 0.039536 
0.101762 0.086897 0.058513 
0.062075 0.056612 0.052328 
0.075334 0.056868 0.047030 
0.102663 0.072765 0.055594 
0.081909 0.064887 0.073679 
0.057608 0.057695 0.059415 
0.098003 0.080675 0.073634 
0.074918 0.065895 0.041879 
0.071680 0.056618 0.068021 
0.097703 0.078479 0.079253 
0.035446 0.070684 0.049434 
0.041542 0.081397 0.039015 
0.031770 0.080966 0.046214 
0.102481 0.078155 0.047138 
0.077352 0.055308 0.048885 
0.037112 0.071888 0.055313 
0.051497 0.060541 0.061438 
0.045976 0.084542 0.041912 
0.080099 0.065920 0.080970 
0.052868 0.070247 0.080257 
0.060277 0.073280 0.056612 
0.034882 0.071128 0.045279 
0.090344 0.088186 0.048172 
0.101969 0.071842 0.054829 
0.068073 0.067719 0.044079 
0.098580 0.068115 0.051559 
0.103933 0.074709 0.058016 
0.042068 0.076742 0.064741 
0.092775 0.067848 0.081046 
0.031922 0.077830 0.044842 
0.069609 0.073528 0.067827 
0.091951 0.082116 0.039449 
0.039443 0.077404 0.060824 
0.063546 0.055623 0.058785 
0.093169 0.086539 0.056330 
0.086081 0.054411 0.055271 
0.035461 0.088146 0.042286 
0.056253 0.058159 0.059527 
0.092747 0.058562 0.054909 
0.049266 0.081545 0.044296 
0.100721 0.072402 0.050387 
0.059496 0.064698 0.080015 
0.053181 0.076241 0.045915 
0.050260 0.078113 0.058875 
0.042403 0.084184 0.055772 
0.096528 0.087781 0.057473 
0.067636 0.071312 0.081288 
0.096699 0.086156 0.041601 
0.036885 0.070949 0.053759 
0.046597 0.077290 0.069397 
0.101208 0.087698 0.051890 
0.053278 0.074531 0.078449 
0.066799 0.058874 0.071022 
0.071252 0.073603 0.044516 
0.096204 0.063104 0.062232 
0.089360 0.085181 0.053452 
0.040950 0.064870 0.048635 
0.063363 0.062898 0.078319 
0.047229 0.079835 0.062093 
0.074549 0.063898 0.081864 
0.101728 0.069126 0.058565 
0.048209 0.073953 0.040125 
0.033652 0.078518 0.051405 
0.081013 0.075113 0.039882 
0.078057 0.052784 0.055532 
0.061906 0.062743 0.076571 
0.101703 0.069672 0.066519 
0.102441 0.085739 0.059990 
0.090580 0.062571 0.064297 
0.050268 0.078665 0.053881 
0.045833 0.078125 0.039675 
0.046735 0.084741 0.043055 
0.042689 0.088450 0.048108 
0.099199 0.079967 0.076125 
0.075712 0.059340 0.044466 
0.088470 0.084370 0.040587 
0.042301 0.088536 0.042252 
0.033900 0.073455 0.044032 
0.073353 0.075881 0.045135 
0.103876 0.080260 0.052248 
0.045405 0.072357 0.039634 
0.081246 0.059998 0.066539 
0.100702 0.086949 0.059900 
0.089192 0.075169 0.078622 
0.059284 0.059325 0.048289 
0.078402 0.062433 0.072889 
0.084894 0.085572 0.046026 
0.042911 0.086881 0.050982 
0.061778 0.057783 0.049830 
0.061766 0.073681 0.068710 
0.086214 0.076932 0.038934 
0.053851 0.064948 0.073495 
0.069042 0.055679 0.065111 
0.056306 0.073802 0.052095 
0.101706 0.082746 0.044542 
0.092216 0.087923 0.050965 
0.055960 0.074431 0.059982 
0.063911 0.071101 0.082965 
0.035320 0.087743 0.047877 
0.090088 0.082418 0.060800 
0.085126 0.078065 0.063859 
0.047808 0.081504 0.041949 
0.071142 0.072511 0.073884 
0.100107 0.080334 0.074937 
0.037446 0.085113 0.039917 
0.088195 0.083808 0.054745 
0.085139 0.080803 0.057382 
0.063457 0.073534 0.064721 
0.040533 0.089435 0.047868 
0.050422 0.063581 0.066538 
0.079271 0.070894 0.040162 
0.089022 0.065141 0.070492 
0.045437 0.063529 0.059027 
0.071298 0.055268 0.065034 
0.050255 0.070615 0.040802 
0.096451 0.084355 0.064880 
0.082821 0.074667 0.071727 
0.099682 0.083839 0.066634 
0.036422 0.074094 0.055533 
0.060543 0.072676 0.080194 
0.086013 0.078789 0.063114 
0.068639 0.074362 0.061205 
0.062408 0.063957 0.080816 
0.052496 0.076695 0.062660 
0.103219 0.080555 0.049408 
0.092919 0.061708 0.062400 
0.089308 0.088165 0.047101 
0.070408 0.070111 0.084794 
0.089161 0.056012 0.055252 
0.060175 0.057055 0.052703 
0.095433 0.080220 0.071922 
0.052137 0.077187 0.050504 
0.065075 0.055943 0.051833 
0.035468 0.071207 0.043836 
0.037233 0.075688 0.057560 
0.072114 0.072750 0.072640 
0.102946 0.083927 0.049372 
0.054165 0.067193 0.078868 
0.046343 0.064915 0.063188 
0.036083 0.071877 0.053051 
0.090895 0.078423 0.069981 
0.069329 0.073805 0.066063 
0.039156 0.084070 0.055165 
0.076361 0.076924 0.058308 
0.092495 0.060415 0.051313 
0.092551 0.078363 0.039117 
0.099576 0.067303 0.068709 
0.065443 0.060514 0.046684 
0.057714 0.074260 0.062871 
0.085449 0.083035 0.052715 
0.071520 0.070660 0.083065 
0.074299 0.074114 0.067715 
0.098668 0.088652 0.055135 
0.077276 0.054998 0.063659 
0.103024 0.074837 0.072289 
0.097530 0.063017 0.058063 
0.090411 0.086926 0.050965 
0.050565 0.077043 0.072644 
0.066780 0.055153 0.061531 
0.046837 0.065296 0.042087 
0.079588 0.053379 0.059620 
0.050841 0.078495 0.043934 
0.072978 0.056296 0.067390 
0.035890 0.086340 0.050369 
0.101079 0.077328 0.078763 
0.034947 0.086342 0.049274 
0.099355 0.081038 0.073055 
0.103716 0.074861 0.065779 
0.077258 0.065885 0.083618 
0.058443 0.074215 0.064021 
0.063824 0.060773 0.046765 
0.066074 0.073443 0.066521 
0.088292 0.073743 0.038942 
0.052836 0.068322 0.041972 
0.051128 0.077417 0.070386 
0.063495 0.072906 0.075510 
0.072112 0.054776 0.064003 
0.055619 0.062206 0.045530 
0.049962 0.078614 0.056419 
0.096198 0.061691 0.058696 
0.100856 0.086310 0.061256 
0.039611 0.079941 0.038837 
0.090002 0.056907 0.053754 
0.074027 0.072492 0.074527 
0.049889 0.060371 0.050190 
0.088871 0.063479 0.066048 
0.062837 0.064585 0.045572 
0.069649 0.054138 0.059680 
0.063885 0.073160 0.072444 
0.075712 0.067819 0.085549 
0.100385 0.070827 0.052069 
0.075124 0.054329 0.063008 
0.061562 0.064579 0.081850 
0.100768 0.073208 0.078155 
0.063192 0.073452 0.069355 
0.098772 0.077648 0.080515 
0.086884 0.058280 0.048036 
0.100104 0.087519 0.058875 
0.046789 0.080261 0.040653 
0.091712 0.057563 0.055968 
0.036347 0.088606 0.047753 
0.032307 0.078764 0.042903 
0.071421 0.071998 0.077019 
0.083388 0.057352 0.062745 
0.103876 0.076041 0.066403 
0.071616 0.063581 0.082819 
0.060189 0.056925 0.060025 
0.066659 0.065816 0.044758 
0.081519 0.061376 0.067697 
0.077422 0.073086 0.073591 
0.073332 0.070947 0.081674 
0.051483 0.077425 0.064916 
0.079178 0.060758 0.043174 
0.083247 0.057722 0.046547 
0.051596 0.077240 0.053411 
0.087661 0.058503 0.061421 
0.039514 0.075481 0.039194 
0.080714 0.060617 0.043236 
0.081217 0.071250 0.081301 
0.044606 0.065397 0.042416 
0.051506 0.069712 0.078256 
0.084481 0.080693 0.040386 
0.057048 0.059791 0.065320 
0.043578 0.073591 0.067645 
0.069057 0.055677 0.050183 
0.070013 0.054393 0.052635 
0.079033 0.054265 0.050754 
0.100913 0.073221 0.049151 
0.044326 0.064504 0.059113 
0.040146 0.082290 0.057631 
0.064578 0.072233 0.078423 
0.036132 0.089193 0.046567 
0.100775 0.067802 0.057550 
0.035434 0.074314 0.041195 
0.075825 0.059078 0.070376 
0.100188 0.069313 0.072650 
0.077033 0.071300 0.080482 
0.090972 0.086309 0.053182 
0.047488 0.072326 0.073852 
0.069655 0.072044 0.076770 
0.103874 0.077507 0.067520 
0.087720 0.063760 0.066854 
0.091019 0.084664 0.057336 
0.065336 0.071918 0.079605 
0.082592 0.053374 0.057513 
0.097122 0.079981 0.074912 
0.048889 0.082452 0.045271 
0.054216 0.075306 0.059935 
0.084124 0.075396 0.070555 
0.091772 0.060924 0.061943 
0.032106 0.079730 0.047707 
0.084477 0.084988 0.047158 
0.043657 0.084215 0.055165 
0.063646 0.073525 0.052529 
0.097774 0.065105 0.065499 
0.067557 0.069620 0.085686 
0.039932 0.081711 0.038941 
0.056222 0.066542 0.043816 
0.059945 0.056734 0.057726 
0.065498 0.063391 0.081274 
0.065376 0.062417 0.045920 
0.033113 0.082472 0.041496 
0.052787 0.076232 0.060127 
0.101458 0.077199 0.044782 
0.073271 0.076441 0.054600 
0.092162 0.087179 0.052728 
0.102039 0.079613 0.074002 
0.045942 0.074257 0.071431 
0.102605 0.083090 0.046691 
0.081909 0.078934 0.058298 
0.038828 0.090596 0.044520 
0.047446 0.084423 0.046461 
0.086675 0.063988 0.067648 
0.102427 0.084574 0.047191 
0.039228 0.066165 0.047603 
0.042488 0.079924 0.062153 
0.090296 0.058726 0.060343 
0.042252 0.082537 0.058313 
0.104044 0.075797 0.064425 
0.059179 0.070744 0.083684 
0.045891 0.067795 0.066993 
0.101585 0.073002 0.052293 
0.090702 0.064569 0.068354 
0.044105 0.068172 0.040865 
0.064616 0.073722 0.058208 
0.058529 0.074347 0.075189 
0.091088 0.089275 0.046369 
0.036444 0.083891 0.053170 
0.072488 0.058288 0.070872 
0.077890 0.076491 0.061657 
0.091815 0.064817 0.069260 
0.070653 0.073479 0.068607 
0.057856 0.057374 0.056419 
0.066564 0.073646 0.064678 
0.041212 0.079864 0.061212 
0.079395 0.075494 0.066041 
0.102659 0.078322 0.074425 
0.102635 0.070672 0.060926 
0.103610 0.085030 0.055018 
0.050341 0.074783 0.076369 
0.091022 0.059152 0.051282 
0.088581 0.056149 0.058131 
0.085275 0.067839 0.082582 
0.094043 0.085892 0.040859 
0.039398 0.074093 0.060854 
0.052146 0.066411 0.074436 
0.053674 0.064467 0.072188 
0.086518 0.063670 0.042144 
0.075329 0.076406 0.059092 
0.065128 0.066045 0.086139 
0.044800 0.068170 0.065668 
0.031797 0.082147 0.045651 
0.090542 0.084886 0.056015 
0.103171 0.074053 0.069717 
0.078725 0.075047 0.067101 
0.064253 0.063265 0.080120 
0.033369 0.084454 0.041915 
0.078009 0.059654 0.069136 
0.060761 0.064007 0.079251 
0.090615 0.078983 0.068270 
0.098098 0.088858 0.053818 
0.036789 0.079244 0.056375 
0.042213 0.073312 0.039441 
0.086720 0.055164 0.053411 
0.097274 0.068626 0.045999 
0.063101 0.065386 0.084545 
0.091053 0.085302 0.040559 
0.079903 0.069335 0.040152 
0.080755 0.053391 0.059007 
0.091233 0.076462 0.077543 
0.057906 0.072478 0.081701 
0.083363 0.083262 0.042937 
0.097205 0.062822 0.056732 
0.069952 0.060503 0.045549 
0.078710 0.068702 0.040507 
0.034009 0.085371 0.049005 
0.051032 0.077545 0.056338 
0.084812 0.056517 0.049513 
0.095218 0.083923 0.064498 
0.089556 0.063064 0.043852 
0.066740 0.073954 0.049690 
0.049842 0.076419 0.073921 
0.086107 0.065794 0.073702 
0.059843 0.063773 0.077490 
0.073636 0.064938 0.085020 
0.100526 0.086142 0.044372 
0.103831 0.080091 0.065563 
0.038906 0.069740 0.056763 
0.033317 0.084201 0.048877 
0.059341 0.073158 0.053922 
0.048606 0.063632 0.064311 
0.088436 0.087374 0.047727 
0.055877 0.067849 0.043504 
0.048047 0.070471 0.073781 
0.083425 0.056140 0.049276 
0.061834 0.059449 0.068804 
0.101918 0.085546 0.046390 
0.086266 0.054853 0.057853 
0.035876 0.087068 0.041263 
0.059380 0.058871 0.065322 
0.094651 0.088077 0.053844 
0.099737 0.072478 0.045530 
0.076896 0.064202 0.041881 
0.092955 0.067360 0.042410 
0.099411 0.085497 0.063646 
0.034788 0.071036 0.046768 
0.056361 0.074053 0.079127 
0.099017 0.076551 0.081295 
0.047609 0.074204 0.073918 
0.037147 0.078288 0.057202 
0.080975 0.077098 0.062419 
0.101591 0.081130 0.044259 
0.088185 0.055731 0.054019 
0.087884 0.080623 0.039390 
0.102717 0.083325 0.064037 
0.077065 0.061066 0.072084 
0.092653 0.083047 0.063002 
0.049464 0.079889 0.052686 
0.051934 0.076727 0.058626 
0.080780 0.057809 0.045540 
0.071364 0.058322 0.046594 
0.048579 0.080186 0.055712 
0.092824 0.090028 0.045223 
0.103415 0.075537 0.070746 
0.078568 0.055990 0.048025 
0.086449 0.074014 0.078474 
0.082076 0.057530 0.063690 
0.054074 0.075395 0.048566 
0.061553 0.067517 0.085259 
0.041285 0.079803 0.038820 
0.045272 0.076281 0.069170 
0.096335 0.070983 0.042573 
0.064809 0.058423 0.068892 
0.050039 0.078345 0.042568 
0.074266 0.063410 0.080633 
0.064845 0.073883 0.054044 
0.058305 0.061562 0.046296 
0.077327 0.062709 0.042373 
0.074713 0.055046 0.064688 
0.075456 0.071171 0.080790 
0.091865 0.077767 0.073727 
0.081323 0.066663 0.081626 
0.056519 0.072215 0.081839 
0.071207 0.053917 0.060234 
0.067691 0.054380 0.057101 
0.079806 0.065401 0.079716 
0.066443 0.054676 0.056717 
0.067296 0.059572 0.072735 
0.094035 0.065497 0.071815 
0.093553 0.063899 0.046981 
0.045561 0.086518 0.047107 
0.087472 0.079003 0.039070 
0.091011 0.078463 0.038923 
0.091157 0.077884 0.072045 
0.095784 0.069728 0.042899 
0.087085 0.074234 0.038879 
0.076534 0.060845 0.043346 
0.050855 0.061751 0.045772 
0.096780 0.064432 0.052872 
0.089297 0.065896 0.074284 
0.071642 0.059003 0.072261 
0.045913 0.082210 0.056939 
0.095669 0.086041 0.061038 
0.075590 0.073269 0.041726 
0.075154 0.055843 0.066038 
0.060674 0.059696 0.047757 
0.033576 0.075927 0.050539 
0.094840 0.064916 0.068793 
0.050009 0.070754 0.076910 
0.102051 0.074966 0.076667 
0.103268 0.072407 0.061940 
0.052347 0.059686 0.059985 
0.056298 0.071462 0.044624 
0.068063 0.058368 0.070605 
0.068250 0.054470 0.059817 
0.067989 0.074086 0.048458 
0.081255 0.067856 0.040251 
0.053021 0.075796 0.054955 
0.098640 0.068261 0.074064 
0.063365 0.072170 0.079858 
0.083082 0.069666 0.082952 
0.101037 0.086779 0.045641 
0.055057 0.075090 0.061426 
0.103993 0.084335 0.056090 
0.057807 0.060349 0.067217 
0.088265 0.066220 0.041229 
0.075419 0.064990 0.083725 
0.055301 0.075728 0.073808 
0.054546 0.059196 0.050146 
0.069262 0.071193 0.081510 
0.079884 0.063528 0.041750 
0.054220 0.076262 0.072510 
0.058025 0.064181 0.044950 
0.078320 0.061878 0.042560 
0.056576 0.075349 0.071237 
0.092456 0.069253 0.083701 
0.091131 0.063986 0.066701 
0.079599 0.055298 0.049132 
0.050434 0.075848 0.075184 
0.054789 0.074747 0.057993 
0.060307 0.073362 0.058764 
0.041983 0.066301 0.042736 
0.084584 0.053842 0.055246 
0.057062 0.059268 0.064119 
0.048450 0.071131 0.074835 
0.063800 0.061026 0.073757 
0.045426 0.071555 0.070111 
0.047607 0.062197 0.059695 
0.083311 0.065335 0.073391 
0.079178 0.078064 0.057805 
0.051663 0.077839 0.045012 
0.082279 0.060931 0.066594 
0.096282 0.076104 0.040552 
0.037494 0.083437 0.054507 
0.102203 0.076600 0.047981 
0.071384 0.069183 0.042768 
0.060969 0.062472 0.074937 
0.095240 0.061108 0.059373 
0.039071 0.083102 0.056073 
0.077498 0.056512 0.047272 
0.078847 0.063214 0.073873 
0.062636 0.072401 0.048692 
0.075629 0.073002 0.072975 
0.057243 0.057619 0.057653 
0.064821 0.071656 0.081092 
0.048877 0.078064 0.068201 
0.047304 0.084839 0.044933 
0.103030 0.078885 0.049747 
0.034089 0.072338 0.045154 
0.080868 0.074905 0.069123 
0.090887 0.065059 0.070316 
0.081474 0.063736 0.071221 
0.075550 0.056760 0.067350 
0.060190 0.074071 0.070004 
0.044649 0.071252 0.068533 
0.050648 0.078492 0.052623 
0.056212 0.075181 0.065341 
0.079902 0.076045 0.064573 
0.077005 0.067710 0.084792 
0.047488 0.082002 0.053429 
0.046545 0.085231 0.047359 
0.068678 0.071541 0.079993 
0.071845 0.076089 0.051291 
0.045353 0.073252 0.070568 
0.097352 0.065830 0.069255 
0.035686 0.071001 0.050923 
0.071124 0.074679 0.062663 
0.046075 0.081541 0.058450 
0.049236 0.071484 0.076118 
0.071787 0.059867 0.073780 
0.104330 0.076014 0.058453 
0.046982 0.081636 0.056143 
0.089434 0.070547 0.084786 
0.070456 0.053896 0.054704 
0.100101 0.066653 0.063619 
0.102671 0.076298 0.051289 
0.064965 0.073540 0.064562 
0.066194 0.071897 0.046555 
0.051885 0.075321 0.042577 
0.045975 0.083260 0.054044 
0.075629 0.071856 0.078201 
0.094877 0.065958 0.045516 
0.092266 0.059283 0.059789 
0.091875 0.073895 0.039451 
0.071890 0.069377 0.085805 
0.090240 0.075531 0.038928 
0.094128 0.062245 0.062489 
0.098542 0.068911 0.075778 
0.077786 0.075584 0.041398 
0.073039 0.070547 0.083116 
0.037960 0.089374 0.047778 
0.047245 0.069895 0.071898 
0.078527 0.063637 0.075485 
0.054922 0.066915 0.043200 
0.087487 0.066925 0.080583 
0.104373 0.080558 0.054121 
0.068526 0.072842 0.071826 
0.072738 0.064099 0.083823 
0.091542 0.083378 0.039765 
0.081461 0.079231 0.056971 
0.104007 0.081779 0.052566 
0.084633 0.083727 0.050103 
0.094279 0.086790 0.057459 
0.081980 0.082399 0.049045 
0.092763 0.071686 0.084874 
0.043960 0.079385 0.063908 
0.102844 0.079354 0.048095 
0.080760 0.081947 0.044361 
0.042798 0.064044 0.045826 
0.099721 0.082823 0.068633 
0.054795 0.074726 0.050667 
0.073908 0.067901 0.086363 
0.090921 0.077125 0.074374 
0.074870 0.055921 0.048248 
0.087113 0.084218 0.052381 
0.076116 0.075933 0.042440 
0.090628 0.074185 0.039113 
0.065096 0.067715 0.045172 
0.093750 0.077834 0.077062 
0.050249 0.075521 0.041441 
0.080390 0.062290 0.069968 
0.072660 0.074694 0.064140 
0.073608 0.076652 0.046465 
0.049950 0.060061 0.054569 
0.099190 0.084277 0.042142 
0.082540 0.080177 0.055830 
0.060037 0.061835 0.072628 
0.082116 0.083148 0.044585 
0.086264 0.075154 0.073989 
0.073013 0.072240 0.042718 
0.089229 0.067476 0.081979 
0.060266 0.063236 0.076379 
0.092484 0.058921 0.053558 
0.040143 0.078512 0.038781 
0.103545 0.080566 0.050867 
0.069364 0.074383 0.062347 
0.045579 0.074023 0.039470 
0.083998 0.067812 0.040121 
0.093670 0.066686 0.076618 
0.056895 0.073553 0.050505 
0.042504 0.063989 0.051813 
0.096754 0.065948 0.050764 
0.061099 0.057858 0.064386 
0.079846 0.059619 0.043886 
0.104390 0.077181 0.062635 
0.062585 0.071364 0.047263 
0.088007 0.063051 0.043097 
0.096217 0.069460 0.080428 
0.072061 0.075560 0.046294 
0.033641 0.085922 0.042674 
0.080255 0.081829 0.045611 
0.056489 0.058017 0.053257 
0.098583 0.064315 0.059664 
0.048579 0.067637 0.040999 
0.067830 0.071977 0.077776 
0.049280 0.060340 0.052750 
0.088057 0.078200 0.066803 
0.099194 0.087618 0.044156 
0.070250 0.074916 0.059622 
0.067437 0.056446 0.049672 
0.043081 0.069207 0.040549 
0.084548 0.070381 0.083119 
0.050154 0.064559 0.068002 
0.089890 0.088158 0.042927 
0.086857 0.083118 0.054374 
0.034772 0.073570 0.042233 
0.061026 0.069151 0.085001 
0.043082 0.077570 0.038949 
0.104198 0.075780 0.062796 
0.071537 0.054078 0.052586 
0.094051 0.089336 0.048950 
0.080952 0.081342 0.050124 
0.095339 0.072850 0.084110 
0.094469 0.068912 0.042395 
0.064432 0.073444 0.066622 
0.072899 0.076426 0.053236 
0.074358 0.067337 0.041820 
0.084310 0.073063 0.079012 
0.081069 0.053044 0.054808 
0.082542 0.074980 0.070435 
0.103480 0.083894 0.060962 
0.075017 0.070513 0.082901 
0.083754 0.073294 0.077786 
0.055967 0.061712 0.068624 
0.102491 0.079650 0.072456 
0.037251 0.068410 0.049592 
0.038038 0.086868 0.051577 
0.051471 0.077186 0.059805 
0.090636 0.059863 0.049735 
0.055012 0.074343 0.046784 
0.046195 0.061750 0.053068 
0.048243 0.064980 0.066155 
0.079916 0.079838 0.042299 
0.094778 0.065338 0.070663 
0.062861 0.058054 0.049084 
0.049538 0.062041 0.045565 
0.059461 0.074299 0.071330 
0.066571 0.074282 0.055928 
0.047514 0.061092 0.052663 
0.103703 0.084695 0.057938 
0.034828 0.082391 0.052330 
0.088510 0.078926 0.065696 
0.083895 0.064616 0.070689 
0.093685 0.073215 0.084513 
0.033421 0.074867 0.049346 
0.041915 0.082683 0.039362 
0.031962 0.078487 0.046846 
0.045147 0.077017 0.039378 
0.046939 0.061855 0.057088 
0.078982 0.072711 0.076086 
0.102303 0.069994 0.059767 
0.055192 0.062691 0.069937 
0.050665 0.066104 0.071575 
0.075785 0.072674 0.074416 
0.038906 0.067564 0.052901 
0.091258 0.080385 0.066133 
0.039824 0.066688 0.053259 
0.102227 0.070468 0.057791 
0.050457 0.060528 0.059765 
0.069107 0.062551 0.079796 
0.067615 0.071772 0.079191 
0.034818 0.071275 0.048314 
0.087161 0.057439 0.049765 
0.078437 0.067985 0.084030 
0.053324 0.063654 0.044086 
0.043534 0.088671 0.046407 
0.104438 0.078574 0.062749 
0.096853 0.080841 0.072043 
0.096719 0.076334 0.082417 
0.070126 0.053890 0.058391 
0.077536 0.053613 0.051906 
0.055013 0.058514 0.059050 
0.100268 0.075734 0.080346 
0.099014 0.089036 0.049530 
0.098060 0.065770 0.053621 
0.077503 0.074279 0.041033 
0.041072 0.072293 0.063006 
0.070283 0.072174 0.044164 
0.053729 0.058888 0.052713 
0.078967 0.077002 0.060930 
0.085682 0.067105 0.081302 
0.043452 0.088269 0.042984 
0.039269 0.066452 0.050252 
0.101467 0.072037 0.053298 
0.060424 0.073927 0.073092 
0.076931 0.072023 0.077891 
0.035986 0.073156 0.041492 
0.047888 0.081075 0.054930 
0.060142 0.065612 0.082753 
0.090149 0.061407 0.046052 
0.038627 0.088080 0.050152 
0.067139 0.060544 0.046324 
0.068975 0.054295 0.054207 
0.086992 0.059828 0.045568 
0.038470 0.070988 0.057306 
0.053458 0.061045 0.046686 
0.095718 0.065324 0.069704 
0.044911 0.064069 0.043826 
0.042822 0.078983 0.038974 
0.088569 0.057714 0.050712 
0.038049 0.068369 0.052329 
0.058527 0.058113 0.062458 
0.083438 0.061549 0.042853 
0.099407 0.066871 0.055139 
0.047793 0.066164 0.041559 
0.063617 0.059519 0.047561 
0.054156 0.060439 0.064118 
0.096586 0.062559 0.060385 
0.094751 0.066478 0.075000 
0.088228 0.082865 0.056969 
0.065761 0.072680 0.047735 
0.091377 0.088327 0.048987 
0.036568 0.071595 0.042048 
0.036040 0.085657 0.040563 
0.079707 0.067665 0.083233 
0.056969 0.073376 0.048824 
0.060916 0.057063 0.061614 
0.061184 0.057378 0.050916 
0.040154 0.073128 0.039691 
0.063323 0.073483 0.067789 
0.067544 0.058452 0.047600 
0.040509 0.071698 0.061706 
0.098167 0.075457 0.041853 
0.071563 0.054850 0.050691 
0.080165 0.063345 0.072238 
0.086552 0.063053 0.066208 
0.087740 0.062917 0.065559 
0.067035 0.061846 0.077515 
0.034270 0.078947 0.052543 
0.077161 0.079170 0.045079 
0.098187 0.064026 0.056983 
0.040675 0.069115 0.059601 
0.047048 0.076871 0.070563 
0.102532 0.076939 0.049706 
0.063417 0.055821 0.053911 
0.058043 0.057401 0.054517 
0.051593 0.059422 0.054557 
0.058890 0.074470 0.070073 
0.068059 0.060647 0.075180 
0.087300 0.059134 0.046844 
0.059280 0.074211 0.067112 
0.072580 0.064535 0.042830 
0.048400 0.061063 0.049135 
0.076933 0.052811 0.056196 
0.057279 0.070164 0.083451 
0.070060 0.066438 0.087237 
0.083704 0.078784 0.060541 
0.060159 0.073863 0.064597 
0.086320 0.066282 0.076951 
0.092876 0.063863 0.045813 
0.068412 0.056965 0.067820 
0.089646 0.057066 0.058716 
0.063096 0.073266 0.051296 
0.055796 0.074095 0.049313 
0.067746 0.066388 0.044287 
0.040543 0.080374 0.060098 
0.047001 0.074570 0.039768 
0.061463 0.073619 0.063427 
0.098931 0.081906 0.070601 
0.070337 0.060976 0.076139 
0.091002 0.073462 0.083887 
0.080356 0.081640 0.047937 
0.075461 0.069592 0.084411 
0.062204 0.073421 0.060407 
0.048125 0.071121 0.040164 
0.062274 0.070976 0.083465 
0.070992 0.074759 0.046073 
0.068525 0.061249 0.076503 
0.085478 0.082471 0.054002 
0.033302 0.077838 0.041607 
0.102195 0.079330 0.045459 
0.082483 0.066655 0.080931 
0.095141 0.087864 0.055294 
0.086562 0.071036 0.083600 
0.039964 0.086985 0.040547 
0.042248 0.089391 0.046637 
0.085044 0.081516 0.055584 
0.103399 0.073571 0.065558 
0.090926 0.074449 0.082662 
0.042454 0.065396 0.057044 
0.086400 0.066968 0.040563 
0.036274 0.070881 0.052200 
0.072553 0.062446 0.043545 
0.062058 0.073372 0.058938 
0.095856 0.090199 0.046002 
0.102943 0.073966 0.071278 
0.076666 0.064094 0.079947 
0.050549 0.079157 0.050235 
0.089076 0.056795 0.052708 
0.098136 0.085900 0.042105 
0.057510 0.058735 0.049713 
0.062040 0.072531 0.079384 
0.048125 0.082634 0.043136 
0.099091 0.065896 0.064873 
0.098403 0.087585 0.059225 
0.100572 0.080634 0.073736 
0.066306 0.057073 0.049304 
0.089562 0.070450 0.039839 
0.036845 0.076961 0.056959 
0.073548 0.072248 0.075716 
0.082802 0.082164 0.051003 
0.087620 0.085031 0.041437 
0.073609 0.065402 0.042327 
0.085996 0.056473 0.050372 
0.053397 0.076438 0.064947 
0.042328 0.067819 0.061060 
0.045049 0.074767 0.069844 
0.082230 0.080950 0.053353 
0.056038 0.074847 0.077048 
0.094139 0.090041 0.044537 
0.073419 0.071338 0.080192 
0.036627 0.070573 0.043082 
0.091826 0.085591 0.056492 
0.085302 0.063221 0.067080 
0.098738 0.065996 0.066436 
0.078663 0.080502 0.047499 
0.084925 0.065884 0.074885 
0.104654 0.079238 0.061129 
0.082517 0.075421 0.068892 
0.085224 0.059141 0.045478 
0.069921 0.060297 0.074758 
0.077855 0.067656 0.040872 
0.074252 0.072806 0.073165 
0.035791 0.076664 0.055182 
0.073170 0.054988 0.064731 
0.035509 0.072351 0.042446 
0.102544 0.080120 0.070907 
0.104224 0.077060 0.064165 
0.063846 0.073526 0.060246 
0.095568 0.066381 0.073883 
0.096253 0.061648 0.056968 
0.068267 0.073896 0.064363 
0.083762 0.053910 0.053648 
0.048130 0.078969 0.041100 
0.098219 0.069876 0.046049 
0.052015 0.077237 0.068007 
0.055140 0.070741 0.082181 
0.058928 0.072597 0.048645 
0.047341 0.061335 0.049983 
0.079524 0.062186 0.070945 
0.044767 0.087420 0.043483 
0.103061 0.071741 0.059880 
0.050033 0.067217 0.041367 
0.076481 0.058584 0.069167 
0.087297 0.070989 0.039426 
0.057798 0.073677 0.079179 
0.064050 0.070780 0.046580 
0.066456 0.072136 0.077655 
0.070600 0.075211 0.048111 
0.084332 0.067250 0.081594 
0.061405 0.061787 0.046319 
0.094866 0.080494 0.070512 
0.068947 0.063536 0.082983 
0.059737 0.073047 0.051806 
0.068556 0.065434 0.086634 
0.069527 0.074178 0.063971 
0.104321 0.081073 0.061962 
0.055856 0.075589 0.072611 
0.073072 0.070004 0.084464 
0.070496 0.071378 0.080457 
0.054357 0.065793 0.076313 
0.083944 0.066461 0.040565 
0.050914 0.071832 0.040977 
0.039047 0.078579 0.059730 
0.042456 0.064896 0.055690 
0.069678 0.072726 0.072690 
0.064993 0.067587 0.086448 
0.095038 0.077876 0.079044 
0.097153 0.072164 0.082621 
0.086219 0.085106 0.042174 
0.103493 0.073811 0.056988 
0.084284 0.074994 0.072049 
0.077830 0.078195 0.042774 
0.071764 0.070178 0.084377 
0.079466 0.079151 0.054521 
0.083652 0.077676 0.063345 
0.100202 0.088369 0.053969 
0.049781 0.078435 0.060668 
0.071673 0.066250 0.086971 
0.086993 0.082813 0.040455 
0.061451 0.073675 0.064780 
0.055567 0.066007 0.078499 
0.081439 0.079598 0.041154 
0.042251 0.086104 0.040663 
0.083772 0.058958 0.045106 
0.098956 0.087998 0.057995 
0.066270 0.054825 0.055054 
0.084086 0.066486 0.079538 
0.077346 0.070172 0.082960 
0.092109 0.089153 0.047837 
0.076796 0.079053 0.048101 
0.085839 0.073656 0.038959 
0.098085 0.089025 0.052328 
0.044733 0.082722 0.057263 
0.066551 0.073100 0.070058 
0.081401 0.082831 0.045891 
0.057861 0.073333 0.053622 
0.064151 0.057703 0.049169 
0.074944 0.064541 0.042185 
0.048879 0.062668 0.062814 
0.042613 0.085360 0.053870 
0.062349 0.055967 0.058300 
0.094096 0.078843 0.074045 
0.101297 0.068053 0.061480 
0.090776 0.065918 0.074533 
0.046146 0.061834 0.049783 
0.092404 0.084673 0.040233 
0.054603 0.068156 0.080770 
0.047733 0.067393 0.069304 
0.055086 0.075941 0.071476 
0.045417 0.084206 0.052857 
0.076046 0.061444 0.073782 
0.065090 0.073877 0.052694 
0.096261 0.061981 0.055666 
0.040264 0.070276 0.040832 
0.096390 0.088889 0.052661 
0.096128 0.081330 0.070035 
0.043913 0.063298 0.046816 
0.049506 0.081357 0.047016 
0.039358 0.070017 0.058061 
0.085125 0.084582 0.042644 
0.095348 0.065401 0.048410 
0.048142 0.072994 0.074853 
0.038183 0.082479 0.039117 
0.080997 0.055425 0.062231 
0.097708 0.067844 0.074959 
0.032545 0.075683 0.044723 
0.087984 0.085417 0.051086 
0.095108 0.061624 0.060710 
0.086620 0.065518 0.072138 
0.090016 0.072899 0.039288 
0.050441 0.060044 0.051486 
0.072347 0.063066 0.080878 
0.095702 0.087913 0.042156 
0.076360 0.054122 0.062291 
0.058589 0.073017 0.080526 
0.069799 0.056373 0.048968 
0.041873 0.076652 0.038896 
0.092489 0.077134 0.077278 
0.037408 0.088303 0.049180 
0.094402 0.084987 0.061734 
0.098123 0.088259 0.056993 
0.090789 0.062806 0.044866 
0.074332 0.058797 0.070978 
0.074279 0.053417 0.053405 
0.075186 0.053049 0.058240 
0.048485 0.061241 0.058343 
0.051724 0.072589 0.079042 
0.082269 0.053453 0.053885 
0.085086 0.079761 0.059753 
0.057148 0.064677 0.077101 
0.051600 0.077208 0.061791 
0.079115 0.073847 0.040328 
0.087809 0.079189 0.064353 
0.078182 0.080172 0.045659 
0.073664 0.073157 0.071182 
0.086452 0.069272 0.083845 
0.099023 0.080769 0.041638 
0.072589 0.065115 0.085802 
0.045993 0.081081 0.059899 
0.056633 0.075245 0.068016 
0.044198 0.070441 0.067129 
0.094900 0.064600 0.067497 
0.088447 0.071289 0.084261 
0.080832 0.062639 0.042083 
0.046254 0.072265 0.071851 
0.062994 0.064427 0.082697 
0.050202 0.061203 0.061360 
0.089106 0.071611 0.039432 
0.038512 0.090429 0.045865 
0.103515 0.073397 0.063295 
0.103747 0.076526 0.068527 
0.057410 0.071233 0.045382 
0.099413 0.078582 0.078979 
0.063695 0.055851 0.060447 
0.085291 0.066127 0.040768 
0.034822 0.085336 0.050196 
0.033270 0.080995 0.041161 
0.095567 0.079117 0.075632 
0.039642 0.084678 0.039595 
0.068209 0.054808 0.061557 
0.072817 0.074442 0.065462 
0.078794 0.065264 0.080643 
0.072552 0.053641 0.060013 
0.042488 0.071373 0.064874 
0.096830 0.067695 0.075928 
0.075285 0.060418 0.043828 
0.055120 0.066945 0.079761 
0.098776 0.074597 0.042721 
0.079088 0.077556 0.059312 
0.065064 0.055342 0.060021 
0.075151 0.058293 0.045492 
0.060420 0.058941 0.066349 
0.037449 0.090368 0.044578 
0.092424 0.086220 0.040900 
0.084960 0.054396 0.053468 
0.090308 0.080017 0.039052 
0.051881 0.076000 0.075506 
0.053027 0.076747 0.072164 
0.055136 0.075917 0.068666 
0.051515 0.075209 0.076788 
0.100888 0.071994 0.051672 
0.034756 0.075698 0.041222 
0.102464 0.072269 0.069949 
0.049789 0.074319 0.040854 
0.049146 0.075419 0.074718 
0.092602 0.062985 0.046949 
0.038027 0.078996 0.058196 
0.071481 0.071513 0.043224 
0.083768 0.071772 0.039281 
0.052196 0.064282 0.043392 
0.072345 0.076070 0.047636 
0.051081 0.077444 0.057730 
0.073183 0.060497 0.044340 
0.080231 0.077264 0.061333 
0.050454 0.077737 0.068709 
0.034677 0.072948 0.050912 
0.099998 0.086097 0.062290 
0.068742 0.066887 0.087337 
0.077826 0.063790 0.077142 
0.040165 0.067105 0.055274 
0.040770 0.065707 0.053155 
0.077235 0.062837 0.075249 
0.070657 0.066158 0.043153 
0.058176 0.065665 0.080941 
0.086640 0.078280 0.065039 
0.057613 0.074206 0.077679 
0.049081 0.080731 0.051244 
0.088964 0.080649 0.062804 
0.087109 0.069607 0.039722 
0.101117 0.087836 0.055891 
0.068909 0.074948 0.050920 
0.052626 0.059202 0.057898 
0.081434 0.065432 0.077271 
0.082375 0.069820 0.039736 
0.085651 0.066448 0.078310 
0.088312 0.082543 0.039838 
0.035121 0.083888 0.051777 
0.096416 0.079523 0.040209 
0.057893 0.074849 0.070864 
0.066357 0.074241 0.052806 
0.099906 0.088575 0.048055 
0.037331 0.068276 0.045193 
0.031741 0.079677 0.045826 
0.085302 0.082529 0.040993 
0.082082 0.058189 0.045405 
0.091234 0.065636 0.073020 
0.047701 0.082470 0.050974 
0.087060 0.073890 0.079618 
0.079796 0.075416 0.040355 
0.097663 0.063592 0.060707 
0.054556 0.060877 0.065478 
0.079173 0.081028 0.045873 
0.079475 0.073388 0.073521 
0.078027 0.077862 0.056978 
0.066711 0.073439 0.048291 
0.093135 0.081437 0.039430 
0.102805 0.076616 0.074933 
0.103602 0.082248 0.051147 
0.049751 0.080627 0.048354 
0.092654 0.065528 0.072459 
0.047629 0.083556 0.048176 
0.052752 0.059898 0.061251 
0.068300 0.073101 0.069944 
0.043851 0.068874 0.064933 
0.088104 0.059067 0.047920 
0.037750 0.089633 0.042597 
0.079693 0.061978 0.042435 
0.062268 0.068722 0.085431 
0.046239 0.080571 0.061140 
0.092271 0.058162 0.057683 
0.083298 0.077727 0.039670 
0.087007 0.066530 0.078673 
0.099964 0.077622 0.079683 
0.073248 0.053254 0.056096 
0.063885 0.072175 0.047985 
0.054487 0.076240 0.069753 
0.093928 0.070094 0.041491 
0.057832 0.072465 0.047275 
0.048147 0.061056 0.056521 
0.078558 0.052883 0.058069 
0.073106 0.066715 0.042216 
0.061698 0.070268 0.084404 
0.050509 0.077938 0.061732 
0.083613 0.077052 0.065021 
0.040600 0.083746 0.056213 
0.097202 0.082796 0.040852 
0.091036 0.071001 0.084935 
0.098501 0.089122 0.050855 
0.054095 0.059136 0.060491 
0.074875 0.077540 0.050956 
0.073531 0.057746 0.069705 
0.062047 0.073363 0.054512 
0.065712 0.072561 0.075165 
0.061412 0.056283 0.055569 
0.103592 0.076662 0.070093 
0.049217 0.068600 0.073589 
0.100920 0.071484 0.075173 
0.048187 0.080332 0.056951 
0.061406 0.073706 0.072209 
0.083827 0.055386 0.050691 
0.048269 0.062349 0.061264 
0.095990 0.074708 0.083649 
0.104279 0.078731 0.064123 
0.057705 0.073347 0.052299 
0.100035 0.069148 0.053638 
0.056031 0.073734 0.047576 
0.075595 0.071228 0.041321 
0.085140 0.064602 0.069758 
0.054508 0.074802 0.052123 
0.059510 0.064257 0.078715 
0.089757 0.073838 0.082676 
0.090818 0.060635 0.048550 
0.101630 0.077766 0.077626 
0.054983 0.058278 0.056071 
0.100871 0.087675 0.047322 
0.052315 0.077116 0.069436 
0.072034 0.059416 0.045494 
0.046734 0.061579 0.054741 
0.063533 0.065807 0.045425 
0.063491 0.072557 0.077666 
0.042415 0.087204 0.041340 
0.072931 0.070945 0.042362 
0.068914 0.056354 0.066659 
0.088968 0.061630 0.044694 
0.034706 0.077261 0.053352 
0.039687 0.087743 0.050942 
0.048748 0.066813 0.069956 
0.041266 0.065892 0.055218 
0.100774 0.080075 0.043219 
0.053323 0.058837 0.054799 
0.075211 0.059579 0.071561 
0.058848 0.073610 0.059714 
0.086981 0.079804 0.061987 
0.061429 0.064926 0.045452 
0.099690 0.070266 0.051059 
0.045836 0.066136 0.041649 
0.085936 0.065121 0.070735 
0.078309 0.073546 0.072180 
0.054161 0.070206 0.081460 
0.102670 0.075151 0.052805 
0.104632 0.080384 0.060497 
0.036037 0.081372 0.039538 
0.094221 0.079729 0.071607 
0.104132 0.080110 0.064062 
0.073358 0.058676 0.045592 
0.055255 0.074271 0.053050 
0.086157 0.075396 0.038910 
0.038856 0.076418 0.060195 
0.063641 0.070251 0.084549 
0.103754 0.078872 0.067482 
0.081390 0.072057 0.079680 
0.101155 0.074029 0.047885 
0.054065 0.075282 0.046390 
0.077508 0.075907 0.063253 
0.068558 0.068154 0.087082 
0.044047 0.063662 0.045295 
0.059162 0.062727 0.045757 
0.093910 0.077504 0.078473 
0.083310 0.082236 0.041764 
0.043341 0.063308 0.049646 
0.091873 0.076951 0.039041 
0.083467 0.074465 0.073009 
0.048103 0.083659 0.044726 
0.070992 0.074909 0.061115 
0.076200 0.075101 0.065244 
0.043894 0.086280 0.041514 
0.091510 0.072341 0.084716 
0.068209 0.063199 0.081839 
0.095320 0.089125 0.050561 
0.098555 0.073311 0.043238 
0.047287 0.065324 0.065270 
0.074440 0.053931 0.061968 
0.086148 0.059619 0.063092 
0.077333 0.072963 0.040848 
0.060397 0.056745 0.053967 
0.055688 0.068372 0.082011 
0.057171 0.061020 0.068174 
0.071292 0.064811 0.085793 
0.056641 0.073679 0.054168 
0.090326 0.076416 0.075999 
0.059598 0.059945 0.067876 
0.056447 0.059313 0.048897 
0.102122 0.082628 0.066655 
0.049952 0.078150 0.065647 
0.066995 0.072729 0.072826 
0.102848 0.080539 0.069041 
0.067334 0.066296 0.086890 
0.104437 0.077853 0.056007 
0.089370 0.083480 0.057345 
0.048672 0.082272 0.047902 
0.102700 0.080289 0.046794 
0.096623 0.064682 0.065973 
0.102395 0.073045 0.072484 
0.101976 0.069419 0.063055 
0.101989 0.075476 0.049441 
0.065312 0.061464 0.075774 
0.046370 0.085903 0.046225 
0.092131 0.065884 0.074250 
0.102443 0.081716 0.067762 
0.071563 0.073031 0.071043 
0.077559 0.065848 0.041325 
0.081550 0.056658 0.047599 
0.035771 0.079796 0.054733 
0.034442 0.085350 0.041536 
0.102975 0.080969 0.048074 
0.032389 0.078412 0.048452 
0.060383 0.071113 0.083342 
0.100936 0.069399 0.055438 
0.051332 0.059883 0.058805 
0.075681 0.060613 0.072761 
0.079138 0.059960 0.068408 
0.052477 0.059127 0.055827 
0.104394 0.076397 0.061375 
0.039392 0.089916 0.047144 
0.101556 0.074275 0.049891 
0.073788 0.063944 0.042667 
0.094420 0.090194 0.046158 
0.072281 0.054161 0.062204 
0.039987 0.071017 0.060220 
0.098725 0.067097 0.070520 
0.063577 0.055500 0.057176 
0.072781 0.055691 0.066207 
0.061632 0.058272 0.065842 
0.097796 0.079751 0.076139 
0.074648 0.068708 0.085563 
0.079319 0.058779 0.066934 
0.049576 0.060943 0.048160 
0.058737 0.066039 0.082164 
0.096878 0.080809 0.040500 
0.091730 0.080834 0.039269 
0.095422 0.077501 0.080303 
0.053559 0.075918 0.061660 
0.097077 0.088382 0.055770 
0.057082 0.058060 0.052057 
0.091453 0.072315 0.039700 
0.099506 0.088708 0.052446 
0.103301 0.083202 0.062828 
0.098085 0.083764 0.066672 
0.040525 0.068358 0.058288 
0.072978 0.071996 0.077112 
0.104012 0.083791 0.054579 
0.053832 0.063807 0.070941 
0.101391 0.081340 0.070531 
0.075502 0.074465 0.067153 
0.100657 0.068267 0.056277 
0.070639 0.053739 0.056696 
0.095470 0.067025 0.075959 
0.080628 0.058538 0.065628 
0.086055 0.068246 0.040060 
0.100061 0.068387 0.054711 
0.097547 0.079223 0.077600 
0.087490 0.065761 0.073259 
0.055102 0.058642 0.051905 
0.051330 0.076804 0.043077 
0.032095 0.083156 0.044166 
0.095152 0.060636 0.055884 
0.038511 0.086156 0.052638 
0.051742 0.059678 0.051150 
0.068642 0.059708 0.073476 
0.054565 0.068419 0.042820 
0.074158 0.062648 0.043056 
0.045323 0.066260 0.063790 
0.093828 0.065260 0.045062 
0.102481 0.071628 0.056637 
0.044463 0.078370 0.039352 
0.041624 0.073188 0.064338 
0.099423 0.070914 0.048571 
0.062938 0.060238 0.071349 
0.074807 0.077616 0.049509 
0.083163 0.073468 0.076471 
0.074083 0.071606 0.079101 
0.038097 0.081154 0.038986 
0.046911 0.083112 0.051970 
0.040330 0.065764 0.045000 
0.043834 0.071727 0.067441 
0.081964 0.072962 0.039552 
0.077144 0.064838 0.081515 
0.053437 0.076260 0.063466 
0.097651 0.086757 0.060989 
0.102502 0.085012 0.048686 
0.097940 0.080134 0.040974 
0.083536 0.084486 0.045608 
0.104652 0.081545 0.056515 
0.071810 0.066603 0.042672 
0.056229 0.057895 0.056564 
0.065273 0.073640 0.062420 
0.087414 0.072679 0.039074 
0.043160 0.078164 0.064891 
0.055969 0.060040 0.047850 
0.103945 0.076757 0.054868 
0.060817 0.073174 0.053429 
0.056803 0.065491 0.078946 
0.087202 0.065096 0.070233 
0.089640 0.087112 0.042013 
0.102523 0.086208 0.051899 
0.088832 0.069408 0.084408 
0.059005 0.063686 0.076401 
0.040662 0.083280 0.039253 
0.089600 0.059631 0.048686 
0.081704 0.073373 0.075434 
0.043770 0.064503 0.057923 
0.045398 0.069883 0.040101 
0.048166 0.078815 0.065188 
0.081445 0.053632 0.052865 
0.089338 0.077918 0.069194 
0.083709 0.058423 0.063433 
0.050765 0.067046 0.073589 
0.087446 0.066185 0.076125 
0.087463 0.077681 0.038905 
0.046316 0.070106 0.070503 
0.076022 0.077475 0.055001 
0.077162 0.077791 0.055838 
0.077356 0.056387 0.065649 
0.041260 0.072267 0.039741 
0.103435 0.074623 0.055549 
0.101180 0.067832 0.059998 
0.058699 0.067931 0.084016 
0.062072 0.057225 0.063601 
0.046969 0.081222 0.057517 
0.044337 0.074247 0.068887 
0.049573 0.079261 0.054963 
0.047244 0.068712 0.070508 
0.051972 0.077039 0.052149 
0.071638 0.075922 0.053111 
0.069201 0.061928 0.044998 
0.053742 0.076283 0.073742 
0.088163 0.068491 0.083734 
0.067361 0.073593 0.065911 
0.072950 0.060777 0.075028 
0.037171 0.085197 0.052721 
0.062209 0.066820 0.045411 
0.065246 0.064917 0.045275 
0.056076 0.057954 0.055154 
0.080154 0.072119 0.078897 
0.074966 0.072371 0.075552 
0.100845 0.070740 0.073882 
0.062619 0.073383 0.072760 
0.078855 0.080291 0.044343 
0.066035 0.073255 0.068470 
0.087483 0.075901 0.038861 
0.074307 0.061311 0.075126 
0.087260 0.056547 0.051316 
0.070236 0.063439 0.082684 
0.057023 0.074995 0.074562 
0.103068 0.076383 0.073605 
0.070992 0.075412 0.056934 
0.053782 0.067382 0.042582 
0.061440 0.061444 0.072900 
0.083806 0.073291 0.039211 
0.093416 0.066232 0.075123 
0.035395 0.077956 0.054528 
0.033727 0.074445 0.043128 
0.079458 0.076729 0.062284 
0.076408 0.072458 0.075774 
0.072584 0.069636 0.042324 
0.096630 0.086858 0.060128 
0.051912 0.059447 0.052455 
0.069543 0.054003 0.055645 
0.058118 0.058038 0.051205 
0.063013 0.056444 0.062060 
0.063363 0.067925 0.086013 
0.075882 0.068570 0.041221 
0.052481 0.071668 0.080030 
0.079152 0.078257 0.041769 
0.092296 0.083501 0.061758 
0.077333 0.058819 0.044609 
0.048227 0.082432 0.049182 
0.095533 0.061664 0.054430 
0.057766 0.069071 0.044603 
0.039876 0.065762 0.049173 
0.085948 0.078304 0.039190 
0.076935 0.057264 0.067107 
0.052531 0.069332 0.079346 
0.041413 0.088734 0.048743 
0.098898 0.079395 0.077497 
0.089690 0.060451 0.062271 
0.093845 0.085284 0.060458 
0.064659 0.055488 0.053646 
0.092344 0.073589 0.084204 
0.048124 0.062426 0.045327 
0.034735 0.082985 0.040460 
0.093552 0.086023 0.058271 
0.065086 0.073242 0.069780 
0.097458 0.089405 0.049904 
0.069806 0.072953 0.071212 
0.082370 0.059174 0.044446 
0.072659 0.067257 0.086879 
0.078234 0.078965 0.052902 
0.104109 0.075845 0.056893 
0.076100 0.056104 0.047858 
0.058877 0.073444 0.058385 
0.058618 0.065564 0.044790 
0.069489 0.063318 0.044291 
0.099826 0.071667 0.078159 
0.093510 0.075707 0.082507 
0.100000 0.075915 0.043492 
0.077930 0.070734 0.081937 
0.083857 0.060420 0.043840 
0.095270 0.063112 0.063156 
0.066807 0.063177 0.081284 
0.067296 0.074309 0.058338 
0.073414 0.076217 0.056760 
0.075655 0.067195 0.041453 
0.057859 0.057885 0.060777 
0.095764 0.067829 0.077624 
0.083998 0.055278 0.060305 
0.081507 0.075520 0.067638 
0.046852 0.082230 0.054665 
0.103775 0.081982 0.063204 
0.085224 0.054171 0.057111 
0.068598 0.054220 0.058494 
0.045158 0.085558 0.041977 
0.095100 0.070490 0.041966 
0.097935 0.064147 0.061952 
0.045122 0.067157 0.064754 
0.056356 0.069373 0.043854 
0.095659 0.089758 0.044236 
0.080165 0.078815 0.056638 
0.050813 0.079307 0.045287 
0.104755 0.080678 0.057985 
0.086050 0.061942 0.065137 
0.086609 0.081878 0.056812 
0.082320 0.074232 0.039432 
0.061184 0.071706 0.082430 
0.076598 0.065107 0.082809 
0.049591 0.067618 0.072739 
0.080979 0.057644 0.064510 
0.052697 0.073829 0.042496 
0.074246 0.053106 0.057028 
0.063105 0.073466 0.058035 
0.047363 0.064462 0.063984 
0.080427 0.065309 0.078489 
0.049571 0.078500 0.062554 
0.091294 0.081285 0.064488 
0.060043 0.057856 0.050466 
0.080181 0.075345 0.067186 
0.093128 0.064797 0.069009 
0.051251 0.078067 0.051283 
0.035532 0.073181 0.053147 
0.037871 0.077630 0.058443 
0.101774 0.073986 0.051415 
0.080053 0.059882 0.067453 
0.037151 0.090036 0.046048 
0.062695 0.073240 0.074349 
0.083504 0.056286 0.061701 
0.093988 0.076936 0.080306 
0.083863 0.063321 0.068210 
0.103611 0.075173 0.068036 
0.048427 0.079491 0.060159 
0.090229 0.066790 0.079351 
0.063132 0.073535 0.063352 
0.051668 0.063506 0.067820 
0.080540 0.056321 0.063471 
0.099528 0.065767 0.062529 
0.045110 0.062406 0.053473 
0.048908 0.081200 0.043086 
0.079275 0.056785 0.046960 
0.096055 0.064355 0.051667 
0.059821 0.073860 0.075530 
0.046950 0.067203 0.041049 
0.094496 0.071824 0.041015 
0.094842 0.079507 0.073110 
0.072400 0.062409 0.078935 
0.046724 0.063441 0.061130 
0.100082 0.067281 0.066340 
0.070964 0.064108 0.084534 
0.073694 0.054948 0.049809 
0.067535 0.074600 0.053599 
0.051000 0.060913 0.047316 
0.061891 0.072846 0.078023 
0.064504 0.063497 0.045723 
0.103997 0.074534 0.059583 
0.091238 0.088493 0.042755 
0.093960 0.061440 0.061432 
0.038470 0.076525 0.039151 
0.041705 0.064351 0.049697 
0.078881 0.069485 0.083298 
0.038213 0.073137 0.058415 
0.095283 0.088772 0.051969 
0.084380 0.071672 0.081960 
0.070076 0.056425 0.067325 
0.096913 0.066959 0.073897 
0.051316 0.059664 0.057368 
0.074094 0.059635 0.072370 
0.093559 0.089635 0.047688 
0.085994 0.058511 0.046876 
0.053077 0.063409 0.069235 
0.092194 0.065263 0.071253 
0.100438 0.082023 0.069927 
0.076590 0.074380 0.068081 
0.083476 0.061992 0.066745 
0.093500 0.076437 0.039412 
0.097487 0.063681 0.055501 
0.090479 0.071413 0.039717 
0.069003 0.075034 0.053397 
0.050092 0.065334 0.042239 
0.101635 0.071913 0.073595 
0.043674 0.085950 0.051865 
0.038039 0.084666 0.053867 
0.061174 0.069230 0.045780 
0.041185 0.087705 0.041275 
0.099625 0.065534 0.059749 
0.038075 0.076166 0.058960 
0.079267 0.070777 0.081755 
0.083649 0.084066 0.043966 
0.080870 0.072629 0.077717 
0.053378 0.076112 0.047481 
0.091433 0.077062 0.075605 
0.079364 0.061157 0.069643 
0.102979 0.085718 0.058369 
0.098249 0.066728 0.052753 
0.093370 0.087787 0.052887 
0.066524 0.060277 0.073791 
0.082175 0.053944 0.059414 
0.096682 0.077596 0.040487 
0.041020 0.074186 0.039261 
0.062585 0.068156 0.045558 
0.068513 0.055351 0.063822 
0.056132 0.069311 0.082835 
0.090897 0.057930 0.052908 
0.089657 0.067060 0.080726 
0.041821 0.064775 0.053265 
0.095133 0.069332 0.081525 
0.091846 0.084753 0.058509 
0.083692 0.080530 0.056338 
0.095555 0.083601 0.040337 
0.062755 0.063463 0.079568 
0.091851 0.069447 0.040851 
0.087479 0.055111 0.054997 
0.089184 0.088485 0.044455 
0.035625 0.081130 0.054015 
0.092461 0.062136 0.048542 
0.062560 0.059730 0.069984 
0.041063 0.076583 0.063424 
0.086275 0.086689 0.045965 
0.095208 0.060511 0.057245 
0.038809 0.066645 0.048823 
0.068078 0.064065 0.084288 
0.070605 0.062087 0.078657 
0.038967 0.070908 0.041015 
0.071616 0.053590 0.058093 
0.057409 0.066206 0.044355 
0.049402 0.063315 0.043815 
