0.075488 0.060140 0.072210 
0.046834 0.066224 0.066055 
0.072403 0.075493 0.059573 
0.101812 0.086075 0.042491 
0.076359 0.054794 0.049673 
0.087642 0.075044 0.037614 
0.068686 0.068326 0.087007 
0.042106 0.077855 0.064069 
0.096143 0.062988 0.062042 
0.047736 0.066389 0.067796 
0.055406 0.062942 0.044996 
0.063160 0.070029 0.046249 
0.080713 0.074974 0.037599 
0.065750 0.067552 0.045036 
0.068093 0.064724 0.085698 
0.056964 0.061434 0.068969 
0.082660 0.071298 0.037600 
0.043945 0.070448 0.066663 
0.092742 0.066414 0.076180 
0.088346 0.084516 0.053434 
0.060291 0.073788 0.074961 
0.062875 0.073484 0.053345 
0.091162 0.073909 0.083514 
0.037455 0.068737 0.051493 
0.092297 0.078302 0.072550 
0.079260 0.054866 0.049742 
0.064320 0.073759 0.056757 
0.082594 0.058765 0.040217 
0.072355 0.058094 0.046452 
0.075170 0.072168 0.076751 
0.048869 0.064552 0.042567 
0.101744 0.075356 0.047696 
0.086371 0.054795 0.057688 
0.070785 0.054559 0.062839 
0.083378 0.075014 0.071127 
0.061587 0.073659 0.065062 
0.077427 0.063554 0.076926 
0.040571 0.068764 0.058910 
0.051499 0.077176 0.054558 
0.094816 0.069706 0.037624 
0.103333 0.075536 0.071170 
0.066310 0.060226 0.073559 
0.083686 0.079035 0.059876 
0.103335 0.082203 0.049936 
0.087493 0.085312 0.050715 
0.088816 0.067327 0.037609 
0.046186 0.077063 0.069370 
0.092082 0.059588 0.052032 
0.080016 0.085507 0.037661 
0.041284 0.078159 0.062845 
0.048006 0.077810 0.069246 
0.073607 0.057851 0.046302 
0.104035 0.078024 0.054057 
0.049460 0.070719 0.039107 
0.102061 0.076312 0.046423 
0.051060 0.060273 0.060007 
0.082657 0.056492 0.062400 
0.064069 0.072131 0.079448 
0.037469 0.068516 0.040342 
0.060743 0.070413 0.084241 
0.073142 0.068976 0.085898 
0.078706 0.064080 0.076655 
0.091938 0.081552 0.064790 
0.085401 0.076576 0.037608 
0.094269 0.090292 0.046071 
0.081040 0.073799 0.073225 
0.046137 0.069400 0.069452 
0.041899 0.064235 0.050187 
0.093493 0.066809 0.077194 
0.095513 0.080153 0.072091 
0.079472 0.069596 0.083212 
0.100150 0.081367 0.071759 
0.102036 0.073405 0.053043 
0.053930 0.076123 0.064712 
0.077728 0.060081 0.040235 
0.062804 0.073531 0.068313 
0.061412 0.065146 0.082859 
0.053017 0.063459 0.069271 
0.077039 0.079463 0.046415 
0.089994 0.060008 0.039628 
0.102179 0.072492 0.072262 
0.094463 0.076155 0.082301 
0.080260 0.076994 0.062192 
0.082259 0.058767 0.064664 
0.086335 0.071947 0.082760 
0.074308 0.077201 0.051581 
0.043861 0.089779 0.043952 
0.098034 0.089066 0.051939 
0.077409 0.080015 0.045096 
0.086646 0.066662 0.037603 
0.045222 0.079936 0.063255 
0.088925 0.091937 0.038880 
0.056781 0.064419 0.075727 
0.078113 0.064300 0.078489 
0.100868 0.079454 0.076567 
0.099884 0.071605 0.046815 
0.046322 0.091143 0.038187 
0.099687 0.068200 0.054106 
0.061797 0.061554 0.046462 
0.087610 0.083619 0.054266 
0.047606 0.077255 0.070442 
0.036098 0.089142 0.046646 
0.077569 0.080420 0.043246 
0.099691 0.076498 0.080780 
0.089027 0.061376 0.063366 
0.067102 0.070841 0.083210 
0.052866 0.062830 0.067718 
0.102549 0.082652 0.040700 
0.039638 0.069652 0.058222 
0.047692 0.061632 0.058054 
0.071263 0.063106 0.081508 
0.045657 0.080448 0.061940 
0.065597 0.057053 0.049598 
0.079398 0.077405 0.060014 
0.047858 0.061890 0.059318 
0.103135 0.080574 0.049077 
0.085061 0.073788 0.037607 
0.063123 0.073455 0.058496 
0.097466 0.091459 0.039139 
0.101643 0.075879 0.078227 
0.091088 0.061878 0.044856 
0.071774 0.055519 0.049525 
0.046140 0.088237 0.042460 
0.080077 0.060065 0.067646 
0.046301 0.062960 0.045089 
0.101505 0.073226 0.042342 
0.103368 0.073132 0.063910 
0.089512 0.083112 0.058425 
0.067239 0.071163 0.081906 
0.094072 0.078060 0.076706 
0.096689 0.067275 0.046256 
0.061740 0.066145 0.084644 
0.086109 0.065262 0.037601 
0.089680 0.078675 0.067775 
0.068586 0.073199 0.069288 
0.092883 0.087658 0.037627 
0.060143 0.073492 0.059815 
0.098958 0.089469 0.045750 
0.092931 0.073985 0.037621 
0.103863 0.083577 0.059857 
0.067459 0.066996 0.087150 
0.088526 0.059007 0.061464 
0.044837 0.089158 0.043365 
0.057135 0.073529 0.055369 
0.091139 0.080680 0.065364 
0.052713 0.076258 0.051931 
0.081730 0.068260 0.037594 
0.095517 0.073680 0.084097 
0.065787 0.061300 0.075608 
0.054821 0.064662 0.043978 
0.064201 0.059996 0.071841 
0.096673 0.091191 0.041497 
0.080049 0.084643 0.039376 
0.103614 0.084529 0.053379 
0.096374 0.083117 0.066758 
0.103230 0.079334 0.069695 
0.086989 0.079249 0.063170 
0.049506 0.083731 0.041573 
0.084981 0.071502 0.037605 
0.037391 0.069011 0.038871 
0.076273 0.064749 0.082256 
0.038566 0.086394 0.052367 
0.044286 0.081294 0.060523 
0.045063 0.077829 0.066984 
0.101147 0.081531 0.070501 
0.100383 0.068451 0.055405 
0.048498 0.061023 0.057251 
0.075777 0.069467 0.084422 
0.098652 0.081280 0.072265 
0.076645 0.074911 0.066254 
0.086682 0.067923 0.082860 
0.034916 0.088634 0.046031 
0.057277 0.063017 0.072876 
0.065265 0.054990 0.056041 
0.045804 0.092302 0.037631 
0.078224 0.061170 0.070953 
0.081017 0.056965 0.046872 
0.052396 0.064797 0.043156 
0.040189 0.065461 0.048767 
0.045005 0.063515 0.058069 
0.076573 0.058940 0.043954 
0.038780 0.074548 0.059866 
0.091620 0.061218 0.062324 
0.060621 0.058840 0.066261 
0.048399 0.068027 0.071478 
0.075086 0.077757 0.043171 
0.100910 0.073424 0.048750 
0.031156 0.077095 0.041107 
0.084433 0.076392 0.067727 
0.076733 0.072330 0.076521 
0.086131 0.067126 0.081348 
0.098886 0.084437 0.065608 
0.036744 0.088900 0.047780 
0.063018 0.066211 0.085391 
0.084686 0.067177 0.081517 
0.088160 0.086154 0.049844 
0.103976 0.075096 0.063714 
0.063387 0.056750 0.050969 
0.055999 0.073981 0.056092 
0.103440 0.076906 0.071378 
0.040251 0.080750 0.059345 
0.031018 0.077076 0.039814 
0.087583 0.055859 0.052858 
0.103248 0.072254 0.061211 
0.064495 0.064801 0.084362 
0.041329 0.076266 0.063864 
0.082359 0.076073 0.066481 
0.081181 0.059849 0.066430 
0.072467 0.072337 0.037570 
0.075179 0.077248 0.054103 
0.057322 0.074790 0.075162 
0.098843 0.077674 0.037623 
0.051012 0.083708 0.037553 
0.080899 0.078789 0.057686 
0.095290 0.060809 0.058560 
0.097170 0.063414 0.061304 
0.069343 0.064404 0.043888 
0.058621 0.073288 0.056146 
0.096398 0.066841 0.047692 
0.036218 0.077149 0.055899 
0.076727 0.053263 0.059769 
0.053143 0.076813 0.070554 
0.064109 0.055392 0.055615 
0.065777 0.058806 0.070257 
0.032334 0.078795 0.048442 
0.046752 0.073624 0.072789 
0.102676 0.085904 0.058867 
0.036473 0.069290 0.040674 
0.051059 0.079053 0.047601 
0.049028 0.069291 0.074198 
0.049166 0.085292 0.040380 
0.069312 0.073044 0.070443 
0.079528 0.059244 0.040546 
0.095120 0.089795 0.048027 
0.045277 0.067829 0.065943 
0.047753 0.065130 0.041988 
0.079984 0.057887 0.045101 
0.037127 0.075228 0.057260 
0.065222 0.073734 0.060667 
0.092719 0.071209 0.084857 
0.098427 0.067768 0.073298 
0.101168 0.085330 0.062809 
0.039014 0.093252 0.041094 
0.039416 0.066106 0.045384 
0.060908 0.067156 0.045347 
0.063783 0.071686 0.081419 
0.059681 0.062938 0.075071 
0.088942 0.058117 0.050502 
0.094735 0.060133 0.056442 
0.042076 0.072597 0.064816 
0.089071 0.066024 0.037608 
0.102728 0.077591 0.039494 
0.082386 0.074561 0.037602 
0.062768 0.056488 0.061887 
0.062752 0.062859 0.077703 
0.103274 0.084775 0.059836 
0.049265 0.079643 0.054754 
0.043525 0.064158 0.056300 
0.089915 0.076375 0.075222 
0.050432 0.078429 0.054201 
0.074453 0.076873 0.042188 
0.076323 0.068456 0.085060 
0.097303 0.065571 0.068274 
0.071915 0.074321 0.043204 
0.042461 0.093957 0.038986 
0.037349 0.081482 0.055821 
0.087104 0.055528 0.058493 
0.037800 0.092573 0.042017 
0.075888 0.075201 0.037593 
0.072298 0.076102 0.047946 
0.083088 0.053570 0.054300 
0.058435 0.069125 0.045019 
0.053966 0.061381 0.065948 
0.100372 0.082602 0.068744 
0.035620 0.069623 0.043060 
0.076395 0.078301 0.051612 
0.081451 0.055840 0.062478 
0.045176 0.089500 0.042111 
0.060248 0.074095 0.071029 
0.039395 0.087766 0.050918 
0.074812 0.066307 0.037590 
0.069492 0.061570 0.045090 
0.068870 0.074794 0.049795 
0.083050 0.066242 0.079265 
0.096709 0.066801 0.043581 
0.073426 0.075064 0.063082 
0.087602 0.065922 0.074003 
0.081893 0.076603 0.064485 
0.050735 0.074473 0.077032 
0.049036 0.064450 0.066309 
0.090111 0.056570 0.055606 
0.092403 0.066776 0.077998 
0.083102 0.067085 0.081481 
0.050897 0.067469 0.074433 
0.073052 0.063642 0.040899 
0.051462 0.071135 0.078973 
0.047952 0.069330 0.072369 
0.088320 0.058539 0.049169 
0.077155 0.074476 0.068083 
0.095897 0.080980 0.070432 
0.031893 0.074585 0.037573 
0.085826 0.076321 0.069271 
0.071484 0.062635 0.080021 
0.077461 0.052806 0.056890 
0.102215 0.074083 0.039681 
0.082657 0.056947 0.047601 
0.074083 0.060146 0.043768 
0.085475 0.084548 0.037607 
0.089909 0.056790 0.053862 
0.087112 0.076426 0.070498 
0.097202 0.065860 0.069661 
0.090868 0.063034 0.064815 
0.096128 0.079988 0.037616 
0.046524 0.079413 0.064247 
0.073802 0.072222 0.075852 
0.037859 0.090910 0.045012 
0.043206 0.065706 0.059335 
0.098241 0.071006 0.079880 
0.038652 0.073212 0.059218 
0.052488 0.059859 0.060832 
0.103342 0.083425 0.050646 
0.088126 0.063964 0.067114 
0.074146 0.077291 0.047746 
0.052636 0.064618 0.071163 
0.095753 0.067594 0.077060 
0.060233 0.066046 0.083509 
0.049738 0.071400 0.076815 
0.101721 0.073067 0.040935 
0.078339 0.074324 0.069319 
0.074079 0.054162 0.051113 
0.044155 0.068036 0.064453 
0.085945 0.083793 0.051718 
0.085084 0.059055 0.063211 
0.038859 0.080001 0.058599 
0.093111 0.086357 0.056747 
0.102929 0.080403 0.068965 
0.052583 0.066306 0.074847 
0.097303 0.079401 0.076850 
0.100628 0.069616 0.054528 
0.050011 0.074815 0.037972 
0.084241 0.066291 0.078150 
0.102994 0.071729 0.059417 
0.068328 0.074011 0.063540 
0.030162 0.080943 0.037901 
0.048942 0.081201 0.050095 
0.074628 0.071716 0.078578 
0.069168 0.074833 0.057402 
0.058306 0.073248 0.053978 
0.055645 0.072675 0.044898 
0.050954 0.069324 0.040595 
0.069012 0.071237 0.044069 
0.064053 0.062554 0.077685 
0.043644 0.071997 0.067233 
0.046899 0.084385 0.048335 
0.098660 0.066650 0.069236 
0.080188 0.064652 0.076156 
0.075208 0.055370 0.065166 
0.102646 0.076244 0.039806 
0.099090 0.065674 0.056292 
0.041069 0.081770 0.058882 
0.075948 0.055726 0.048370 
0.096048 0.081654 0.069191 
0.100045 0.067360 0.056034 
0.092259 0.076690 0.078409 
0.088430 0.077129 0.070092 
0.048297 0.080925 0.053971 
0.086657 0.063003 0.037600 
0.090117 0.091891 0.039815 
0.086461 0.058167 0.061691 
0.064147 0.073054 0.049497 
0.074313 0.053094 0.056793 
0.087801 0.055414 0.054378 
0.095818 0.076878 0.081639 
0.058711 0.060163 0.067564 
0.043186 0.088212 0.048026 
0.051521 0.070520 0.040613 
0.031613 0.076385 0.042943 
0.076327 0.065336 0.083546 
0.053632 0.065384 0.074220 
0.083713 0.062765 0.037593 
0.092559 0.077572 0.075740 
0.092734 0.059200 0.053609 
0.102581 0.082208 0.042117 
0.083624 0.069765 0.083114 
0.030641 0.084611 0.039903 
0.074374 0.070616 0.082654 
0.033683 0.084307 0.049455 
0.084131 0.088496 0.039627 
0.068875 0.072795 0.072174 
0.062589 0.056038 0.059163 
0.076943 0.076405 0.061104 
0.093949 0.060541 0.053207 
0.084282 0.058629 0.044528 
0.043420 0.077942 0.065299 
0.073977 0.067497 0.086405 
0.096711 0.064620 0.038906 
0.060238 0.073247 0.055664 
0.059001 0.057318 0.060078 
0.103573 0.076056 0.069714 
0.063021 0.055826 0.054479 
0.062111 0.073638 0.066783 
0.069555 0.065686 0.043280 
0.092220 0.087692 0.051480 
0.102650 0.074842 0.053221 
0.036922 0.068297 0.043471 
0.069421 0.060953 0.075988 
0.083228 0.078047 0.061842 
0.064627 0.073037 0.072330 
0.095515 0.063596 0.038840 
0.062945 0.061538 0.074274 
0.066791 0.057342 0.048832 
0.087091 0.079873 0.037606 
0.070397 0.066267 0.042513 
0.103347 0.072816 0.062451 
0.103831 0.078081 0.067601 
0.086390 0.059337 0.043541 
0.102974 0.071878 0.063521 
0.087933 0.058952 0.047948 
0.084807 0.089716 0.037575 
0.102731 0.079018 0.040772 
0.082467 0.070336 0.082592 
0.058463 0.059473 0.065844 
0.097259 0.089291 0.050788 
0.055400 0.059607 0.063301 
0.078275 0.054258 0.061949 
0.104594 0.081690 0.059100 
0.103880 0.076725 0.067162 
0.103407 0.073031 0.058272 
0.046678 0.067731 0.068206 
0.090057 0.080542 0.064330 
0.043663 0.073289 0.067790 
0.058833 0.057897 0.061964 
0.046612 0.081504 0.057324 
0.047696 0.062535 0.060766 
0.092916 0.087382 0.053256 
0.099070 0.067657 0.071542 
0.064668 0.056299 0.051225 
0.098768 0.071868 0.037632 
0.097495 0.080761 0.072928 
0.079792 0.079835 0.037593 
0.042425 0.073576 0.065697 
0.083250 0.058529 0.063768 
0.068228 0.070540 0.083781 
0.079781 0.078717 0.056469 
0.103533 0.073832 0.064965 
0.070764 0.070477 0.041513 
0.039285 0.069323 0.056982 
0.077654 0.071955 0.078369 
0.052854 0.062102 0.066227 
0.073615 0.076778 0.046328 
0.088049 0.085379 0.037600 
0.058542 0.058752 0.049253 
0.067238 0.073596 0.048127 
0.076829 0.063142 0.037589 
0.054028 0.076397 0.071537 
0.096265 0.068271 0.078020 
0.063307 0.061883 0.046294 
0.049180 0.067594 0.040587 
0.084186 0.056476 0.061489 
0.092975 0.082346 0.064627 
0.103721 0.075867 0.068122 
0.089870 0.065427 0.071944 
0.089861 0.073667 0.082968 
0.031060 0.078161 0.042359 
0.071981 0.053804 0.053449 
0.046367 0.084565 0.049599 
0.097460 0.063945 0.062455 
0.048656 0.084073 0.043621 
0.033138 0.086443 0.045983 
0.048155 0.079140 0.063395 
0.097780 0.067305 0.050948 
0.078162 0.072862 0.074982 
0.050576 0.085156 0.037770 
0.095735 0.065978 0.072311 
0.065597 0.054897 0.057445 
0.050543 0.077895 0.065693 
0.043976 0.090439 0.042712 
0.073908 0.056892 0.047294 
0.053861 0.059534 0.061519 
0.092435 0.091331 0.042253 
0.080676 0.075997 0.065319 
0.035160 0.082815 0.052538 
0.061454 0.056229 0.058087 
0.050307 0.064562 0.042831 
0.068442 0.074736 0.056202 
0.095385 0.069147 0.080799 
0.086077 0.086126 0.047398 
0.049265 0.073577 0.037634 
0.101383 0.086920 0.043524 
0.034438 0.088927 0.044859 
0.067349 0.071501 0.080448 
0.081201 0.056152 0.048292 
0.057785 0.057433 0.054807 
0.040675 0.073238 0.062784 
0.081147 0.070099 0.082609 
0.095932 0.078785 0.077311 
0.094690 0.084984 0.037619 
0.053887 0.074818 0.077975 
0.101794 0.086608 0.049577 
0.095946 0.085288 0.037626 
0.083578 0.084485 0.037602 
0.083426 0.055811 0.049858 
0.093518 0.083844 0.037607 
0.080849 0.067552 0.082822 
0.101079 0.083804 0.037630 
0.060746 0.073663 0.063360 
0.077583 0.061820 0.072711 
0.090216 0.060132 0.048598 
0.035583 0.088222 0.047551 
0.091259 0.066804 0.078650 
0.037606 0.068141 0.050093 
0.054138 0.060728 0.064804 
0.065560 0.063258 0.080738 
0.096038 0.075568 0.037630 
0.097833 0.080441 0.074179 
0.053815 0.071805 0.081019 
0.067675 0.055825 0.064608 
0.031501 0.075905 0.040620 
0.096868 0.074467 0.037630 
0.102627 0.084182 0.047792 
0.075744 0.056778 0.047113 
0.048073 0.086203 0.041465 
0.045776 0.061965 0.052365 
0.095441 0.063900 0.051214 
0.034864 0.071252 0.037850 
0.048293 0.078804 0.064889 
0.086290 0.089783 0.037592 
0.057025 0.073662 0.056982 
0.097048 0.086916 0.060305 
0.093309 0.070269 0.084129 
0.098112 0.067278 0.037629 
0.062555 0.060594 0.046957 
0.030779 0.078451 0.040536 
0.061091 0.073059 0.052059 
0.085976 0.077058 0.067560 
0.064456 0.068292 0.045463 
0.073779 0.053595 0.060664 
0.104101 0.083972 0.056737 
0.033999 0.071967 0.038465 
0.048153 0.071770 0.037708 
0.091894 0.062434 0.043418 
0.076887 0.070548 0.082435 
0.050656 0.071739 0.078130 
0.085646 0.074509 0.075686 
0.067660 0.063201 0.045112 
0.050548 0.079111 0.037665 
0.053254 0.075349 0.076924 
0.061529 0.073327 0.075979 
0.102107 0.080682 0.037625 
0.061481 0.073569 0.062248 
0.085862 0.056875 0.049719 
0.085379 0.082822 0.053158 
0.048120 0.084101 0.045295 
0.092006 0.058145 0.054260 
0.056613 0.075231 0.073629 
0.092121 0.062689 0.044905 
0.047876 0.080801 0.056116 
0.085352 0.087029 0.044840 
0.061346 0.056805 0.052548 
0.098075 0.075016 0.037634 
0.079503 0.052899 0.057893 
0.096112 0.065001 0.050929 
0.065243 0.060662 0.046656 
0.081114 0.073150 0.075704 
0.066011 0.054897 0.058855 
0.084076 0.067656 0.037599 
0.072275 0.068286 0.038690 
0.065360 0.061881 0.046156 
0.058255 0.057416 0.059038 
0.096823 0.062229 0.057762 
0.092028 0.091873 0.037632 
0.051208 0.059682 0.056816 
0.031791 0.075453 0.041836 
0.078536 0.053004 0.058888 
0.083512 0.079855 0.057709 
0.096627 0.090604 0.037638 
0.091307 0.087391 0.037613 
0.077257 0.078485 0.052855 
0.102843 0.076268 0.074579 
0.094567 0.091396 0.042286 
0.070087 0.054437 0.061628 
0.068486 0.073516 0.067467 
0.067524 0.054794 0.053428 
0.080564 0.066407 0.081620 
0.058001 0.072323 0.047274 
0.032498 0.086339 0.044527 
0.074402 0.069195 0.085316 
0.087363 0.058619 0.038996 
0.089022 0.059860 0.047530 
0.088398 0.088244 0.046228 
0.045966 0.081027 0.060041 
0.102539 0.082583 0.065726 
0.037680 0.091532 0.043698 
0.069397 0.070313 0.084297 
0.083702 0.054760 0.051692 
0.036565 0.071240 0.053380 
0.078461 0.059556 0.041325 
0.089988 0.058551 0.060350 
0.077979 0.079280 0.050904 
0.049986 0.060138 0.052343 
0.099928 0.088538 0.052885 
0.097412 0.067967 0.075775 
0.073239 0.055271 0.049386 
0.066125 0.072810 0.072604 
0.102787 0.075954 0.052154 
0.052381 0.076379 0.053541 
0.082355 0.073482 0.075690 
0.066042 0.073948 0.059619 
0.081370 0.076260 0.037602 
0.047479 0.073719 0.073845 
0.061309 0.063063 0.076883 
0.074552 0.059119 0.044655 
0.094234 0.073289 0.037624 
0.049411 0.060419 0.051083 
0.034556 0.071114 0.041263 
0.096441 0.072848 0.037626 
0.035224 0.080844 0.053565 
0.090944 0.061835 0.063225 
0.103422 0.080549 0.050360 
0.047249 0.063165 0.044254 
0.093770 0.087500 0.054393 
0.055002 0.075924 0.072467 
0.033030 0.081886 0.049652 
0.090536 0.069875 0.084803 
0.091303 0.067994 0.082453 
0.048142 0.079607 0.060603 
0.089742 0.060469 0.062253 
0.101588 0.069386 0.066171 
0.068887 0.074977 0.053967 
0.099845 0.074744 0.037634 
0.088468 0.055567 0.055848 
0.034110 0.071690 0.045862 
0.100757 0.077952 0.078708 
0.083962 0.058754 0.040284 
0.081642 0.068628 0.083032 
0.047786 0.089402 0.037736 
0.036300 0.090647 0.044310 
0.052504 0.074805 0.041667 
0.033435 0.078523 0.050947 
0.096951 0.066286 0.050643 
0.091224 0.093264 0.037720 
0.071850 0.054733 0.050793 
0.072185 0.064999 0.040864 
0.080361 0.082190 0.046537 
0.036114 0.070223 0.037927 
0.042800 0.083437 0.056902 
0.058585 0.063687 0.075951 
0.098309 0.076517 0.081807 
0.082072 0.057362 0.063546 
0.062373 0.058622 0.067436 
0.053476 0.065487 0.043145 
0.038043 0.068691 0.052930 
0.030464 0.083305 0.039604 
0.095465 0.070542 0.082881 
0.097391 0.090078 0.045991 
0.043625 0.084098 0.055402 
0.086057 0.059356 0.037594 
0.088260 0.080975 0.061120 
0.076103 0.065841 0.037588 
0.102448 0.083849 0.042142 
0.039384 0.082170 0.057163 
0.069924 0.063171 0.081788 
0.046165 0.072950 0.071778 
0.069147 0.071566 0.079715 
0.088320 0.060169 0.043978 
0.092208 0.084149 0.037595 
0.036194 0.075755 0.055734 
0.057180 0.065996 0.080527 
0.059307 0.064600 0.045159 
0.095282 0.072257 0.037628 
0.104078 0.083200 0.053843 
0.073104 0.076563 0.052739 
0.075923 0.064091 0.080848 
0.083889 0.066721 0.080460 
0.074640 0.055840 0.066250 
0.049222 0.072318 0.038166 
0.099881 0.083906 0.066484 
0.066882 0.062953 0.080481 
0.057860 0.057599 0.053226 
0.053801 0.068399 0.079992 
0.101970 0.085622 0.045448 
0.058391 0.073312 0.079870 
0.091030 0.057261 0.054922 
0.046075 0.062782 0.058260 
0.052478 0.061501 0.064661 
0.043724 0.063093 0.050822 
0.032223 0.074789 0.043273 
0.068468 0.074268 0.048332 
0.093236 0.092180 0.040134 
0.045470 0.091324 0.039293 
0.101816 0.073709 0.076062 
0.095698 0.078260 0.078597 
0.092293 0.072408 0.037621 
0.086423 0.059294 0.044960 
0.090365 0.060830 0.047435 
0.031080 0.083715 0.042836 
0.100607 0.067876 0.065954 
0.064360 0.062910 0.079054 
0.061175 0.069560 0.045983 
0.075729 0.067314 0.037588 
0.102877 0.079845 0.047883 
0.079685 0.070356 0.037592 
0.067795 0.061053 0.075842 
0.079593 0.079313 0.054157 
0.083969 0.058339 0.039069 
0.062567 0.057576 0.049903 
0.064213 0.073752 0.055475 
0.066572 0.074296 0.052430 
0.084975 0.076967 0.066517 
0.064889 0.073486 0.066096 
0.092899 0.078958 0.071617 
0.080797 0.075049 0.068541 
0.071300 0.071999 0.076965 
0.074668 0.075232 0.063503 
0.098990 0.068865 0.074610 
0.053639 0.075816 0.048666 
0.081912 0.053608 0.058812 
0.098567 0.068193 0.051423 
0.089468 0.062929 0.065016 
0.051470 0.078488 0.041866 
0.090929 0.076247 0.077746 
0.098993 0.065661 0.064399 
0.084365 0.077392 0.037605 
0.049516 0.082941 0.043206 
0.059995 0.062283 0.073663 
0.088722 0.085900 0.051053 
0.099028 0.088943 0.050688 
0.094595 0.062989 0.063344 
0.082227 0.078040 0.061042 
0.090601 0.078554 0.069250 
0.073262 0.070358 0.083477 
0.072542 0.065015 0.085696 
0.058052 0.074715 0.068885 
0.040865 0.065044 0.049882 
0.086832 0.066054 0.075087 
0.080973 0.062975 0.070270 
0.067858 0.074689 0.052665 
0.070106 0.075329 0.050050 
0.101743 0.071768 0.038807 
0.104426 0.076646 0.061021 
0.090982 0.061646 0.046356 
0.058247 0.073221 0.052540 
0.097522 0.065594 0.039265 
0.077526 0.065896 0.037592 
0.085886 0.068169 0.037603 
0.055548 0.058833 0.061435 
0.076541 0.076635 0.059738 
0.055419 0.075543 0.074655 
0.049634 0.078585 0.059565 
0.074323 0.061480 0.041898 
0.101758 0.075010 0.049300 
0.078471 0.056619 0.065182 
0.095349 0.076716 0.037629 
0.039421 0.078900 0.060050 
0.035322 0.070405 0.048201 
0.090199 0.063762 0.066300 
0.094768 0.089279 0.049664 
0.083660 0.073810 0.075654 
0.071689 0.065425 0.086580 
0.075189 0.077681 0.041278 
0.047149 0.070953 0.037600 
0.098484 0.086605 0.061521 
0.042657 0.089134 0.046766 
0.063046 0.055680 0.056520 
0.096243 0.079977 0.073625 
0.093854 0.081961 0.066306 
0.041981 0.067175 0.059425 
0.097886 0.068760 0.046683 
0.086298 0.078217 0.064843 
0.044350 0.071494 0.068201 
0.064184 0.073409 0.067855 
0.036507 0.088029 0.048946 
0.060042 0.074060 0.072729 
0.044665 0.090484 0.041474 
0.074558 0.076824 0.055470 
0.038295 0.072289 0.057983 
0.077597 0.064441 0.079718 
0.057024 0.073488 0.051353 
0.031518 0.078830 0.045293 
0.087287 0.057441 0.049882 
0.101664 0.075074 0.046199 
0.089920 0.056633 0.057330 
0.039962 0.092766 0.041849 
0.084864 0.064356 0.069287 
0.060530 0.063272 0.045729 
0.091897 0.060211 0.050825 
0.073511 0.076340 0.056258 
0.030320 0.079329 0.037695 
0.091184 0.090593 0.037630 
0.037282 0.069874 0.053177 
0.093713 0.062325 0.039213 
0.071495 0.055749 0.066268 
0.080785 0.076537 0.063777 
0.090094 0.069986 0.037614 
0.077878 0.068369 0.084325 
0.071042 0.075025 0.060305 
0.093074 0.062219 0.049498 
0.067829 0.064927 0.044449 
0.030150 0.083183 0.037746 
0.061733 0.060446 0.070791 
0.089287 0.064318 0.067605 
0.031316 0.077890 0.043704 
0.090048 0.076074 0.076785 
0.040495 0.065408 0.045314 
0.055402 0.074731 0.077916 
0.067847 0.058583 0.070996 
0.100454 0.088387 0.042550 
0.064391 0.060706 0.073430 
0.067318 0.069361 0.085964 
0.039232 0.066467 0.044009 
0.048442 0.062540 0.061973 
0.100388 0.067297 0.064817 
0.033008 0.090158 0.039521 
0.098816 0.081765 0.037623 
0.072530 0.057271 0.069199 
0.054091 0.067327 0.078967 
0.101326 0.087298 0.038863 
0.049571 0.080147 0.051169 
0.101969 0.082391 0.037627 
0.104224 0.076784 0.056182 
0.102650 0.081746 0.043853 
0.070583 0.056253 0.067113 
0.090944 0.072931 0.037619 
0.085241 0.057308 0.061628 
0.085288 0.085103 0.048287 
0.071947 0.072188 0.075829 
0.059598 0.061113 0.070485 
0.067858 0.074498 0.057510 
0.060411 0.061119 0.046700 
0.083059 0.072280 0.080070 
0.046977 0.086936 0.042919 
0.102182 0.085853 0.060345 
0.086363 0.054717 0.054263 
0.044909 0.072168 0.069544 
0.095206 0.064629 0.049664 
0.083876 0.086103 0.044303 
0.091010 0.057130 0.056888 
0.032592 0.087238 0.043404 
0.089583 0.074960 0.079785 
0.050347 0.076635 0.073733 
0.068766 0.065906 0.087050 
0.074832 0.054881 0.049757 
0.085757 0.066372 0.077460 
0.089950 0.089967 0.044143 
0.101663 0.072758 0.075039 
0.084893 0.070930 0.082967 
0.089862 0.072194 0.084442 
0.104101 0.081055 0.063019 
0.076969 0.053718 0.061258 
0.097308 0.086038 0.062223 
0.058007 0.058402 0.050377 
0.064172 0.057526 0.049366 
0.047967 0.085255 0.043275 
0.042641 0.085470 0.053644 
0.045833 0.081773 0.058311 
0.054094 0.074992 0.056116 
0.080938 0.062461 0.037592 
0.050451 0.077839 0.067341 
0.096401 0.091672 0.039974 
0.073180 0.071392 0.079930 
0.059829 0.072921 0.079984 
0.068123 0.073506 0.047156 
0.096893 0.088976 0.052570 
0.055896 0.059885 0.048026 
0.099604 0.067673 0.069952 
0.056727 0.057745 0.055938 
0.043487 0.080531 0.061856 
0.098699 0.068815 0.037631 
0.102895 0.071850 0.064813 
0.054676 0.063180 0.070446 
0.088344 0.060050 0.062481 
0.070500 0.060268 0.074694 
0.042266 0.068702 0.062046 
0.056428 0.063722 0.073760 
0.040530 0.078645 0.061546 
0.046714 0.061752 0.048963 
0.052296 0.067088 0.075874 
0.064393 0.070646 0.046468 
0.054298 0.074991 0.057862 
0.053646 0.076428 0.066702 
0.090455 0.057419 0.058575 
0.070708 0.061578 0.044510 
0.088074 0.076569 0.071342 
0.055395 0.061481 0.046109 
0.082335 0.081085 0.053214 
0.075072 0.077739 0.049947 
0.099526 0.088820 0.048807 
0.093351 0.063771 0.046007 
0.081176 0.061391 0.068053 
0.056977 0.074443 0.062505 
0.059878 0.073323 0.078176 
0.089898 0.088178 0.047773 
0.061548 0.073293 0.053642 
0.066874 0.059597 0.072557 
0.099440 0.088990 0.047331 
0.078847 0.080482 0.048401 
0.084124 0.058865 0.041604 
0.055207 0.066052 0.043563 
0.067165 0.073319 0.068236 
0.040940 0.087349 0.051453 
0.070485 0.075382 0.055565 
0.100239 0.078579 0.037620 
0.081047 0.054044 0.060307 
0.061259 0.057657 0.050257 
0.054621 0.074145 0.044975 
0.091382 0.061403 0.048012 
0.087561 0.083664 0.037611 
0.066055 0.074173 0.055334 
0.085929 0.078510 0.063630 
0.087589 0.091128 0.039126 
0.051933 0.077334 0.050958 
0.073436 0.065307 0.037956 
0.062993 0.073578 0.064525 
0.074315 0.053276 0.059265 
0.045377 0.078608 0.065999 
0.054084 0.063395 0.044485 
0.046541 0.062990 0.059847 
0.102235 0.071491 0.055965 
0.084363 0.078632 0.061644 
0.059194 0.073671 0.060654 
0.086577 0.065503 0.072010 
0.083499 0.065881 0.037596 
0.085637 0.063950 0.037598 
0.038719 0.084613 0.054350 
0.086766 0.075582 0.072960 
0.055314 0.058505 0.059464 
0.097255 0.070585 0.080737 
0.084914 0.061972 0.037595 
0.100258 0.067778 0.037632 
0.080438 0.084460 0.040578 
0.050599 0.068121 0.040875 
0.101509 0.086745 0.046649 
0.066333 0.060014 0.046785 
0.092865 0.065901 0.074216 
0.098129 0.068398 0.050192 
0.073367 0.076817 0.050443 
0.070306 0.055487 0.050057 
0.049951 0.060231 0.057247 
0.099858 0.070521 0.051072 
0.068616 0.071192 0.081573 
0.092806 0.065159 0.070599 
0.099902 0.069396 0.073762 
0.091368 0.082082 0.063150 
0.057160 0.075081 0.072271 
0.097574 0.084340 0.065424 
0.044969 0.068938 0.066900 
0.033736 0.072781 0.047261 
0.080646 0.071747 0.080029 
0.103019 0.078109 0.073125 
0.039339 0.091073 0.045017 
0.061763 0.073652 0.070979 
0.039194 0.067493 0.053537 
0.058739 0.067704 0.044857 
0.076260 0.071975 0.077792 
0.074963 0.061228 0.074394 
0.076391 0.078560 0.049981 
0.073065 0.059873 0.044581 
0.091131 0.077555 0.073115 
0.082500 0.055145 0.050445 
0.062536 0.056318 0.052842 
0.097635 0.090680 0.042386 
0.062726 0.055778 0.057790 
0.047460 0.068734 0.070933 
0.085365 0.084345 0.049868 
0.056667 0.070723 0.083075 
0.101497 0.071687 0.073610 
0.096192 0.069031 0.079577 
0.086121 0.081244 0.057548 
0.099095 0.074374 0.081644 
0.100481 0.085095 0.063872 
0.035805 0.073742 0.054129 
0.048355 0.066813 0.069245 
0.095787 0.065119 0.068796 
0.102228 0.075975 0.043105 
0.036474 0.072539 0.054560 
0.049544 0.082072 0.045236 
0.060279 0.073838 0.064862 
0.092795 0.090026 0.046170 
0.062979 0.073323 0.072565 
0.061565 0.057839 0.064713 
0.102368 0.073982 0.038418 
0.102643 0.081004 0.041610 
0.059396 0.071690 0.082708 
0.048074 0.070447 0.038445 
0.078739 0.079481 0.051939 
0.075133 0.062231 0.039171 
0.051496 0.059463 0.054223 
0.098596 0.073007 0.081649 
0.102134 0.084885 0.043043 
0.072855 0.072752 0.072797 
0.102212 0.073179 0.073520 
0.085983 0.079205 0.062219 
0.093956 0.063306 0.064527 
0.038739 0.066744 0.049303 
0.055719 0.073733 0.046801 
0.072979 0.072390 0.074543 
0.088170 0.063125 0.065659 
0.075538 0.078007 0.037703 
0.051868 0.075114 0.077026 
0.099602 0.087600 0.037637 
0.098196 0.065724 0.053984 
0.079336 0.076355 0.063271 
0.051410 0.077204 0.040419 
0.050058 0.067332 0.072973 
0.087192 0.091159 0.037613 
0.101527 0.068466 0.061391 
0.100478 0.068669 0.069689 
0.090633 0.087957 0.048998 
0.066495 0.057222 0.067315 
0.080037 0.052873 0.055690 
0.069796 0.070688 0.042990 
0.054646 0.064575 0.073598 
0.034441 0.071384 0.039804 
0.076924 0.073420 0.071964 
0.067257 0.073487 0.066716 
0.058366 0.074259 0.076051 
0.088348 0.056375 0.058815 
0.077097 0.080795 0.039050 
0.073104 0.074739 0.064346 
0.084511 0.085437 0.037604 
0.077137 0.078566 0.037595 
0.058806 0.057084 0.056258 
0.092680 0.068630 0.082718 
0.031455 0.082295 0.045335 
0.096712 0.079747 0.075041 
0.100636 0.072874 0.046331 
0.035533 0.070262 0.040016 
0.070375 0.073551 0.044531 
0.061153 0.064347 0.080747 
0.049957 0.078721 0.055757 
0.085098 0.077857 0.064397 
0.098846 0.065943 0.065857 
0.099793 0.070864 0.044189 
0.050114 0.063766 0.066485 
0.091165 0.060159 0.061360 
0.042222 0.080316 0.061546 
0.079351 0.074968 0.067797 
0.091913 0.074974 0.037615 
0.097301 0.068379 0.037628 
0.099093 0.082929 0.068407 
0.092231 0.081332 0.037616 
0.099490 0.066720 0.066710 
0.047385 0.062377 0.045780 
0.086651 0.085709 0.048834 
0.041050 0.064770 0.048073 
0.040667 0.071881 0.062082 
0.077876 0.079564 0.049508 
0.075668 0.078449 0.042267 
0.075010 0.077823 0.046238 
0.054974 0.058409 0.058104 
0.081314 0.058950 0.040701 
0.071525 0.060956 0.075912 
0.100455 0.072297 0.045036 
0.078665 0.062009 0.071841 
0.060217 0.056747 0.058797 
0.060355 0.072267 0.081429 
0.065585 0.074029 0.056685 
0.081817 0.069583 0.037596 
0.053305 0.069578 0.080373 
0.038566 0.067299 0.050784 
0.039557 0.073781 0.061031 
0.036277 0.074240 0.055368 
0.104406 0.082953 0.055929 
0.104688 0.078181 0.060182 
0.076308 0.077473 0.055552 
0.087456 0.089079 0.043529 
0.049888 0.069062 0.075321 
0.093799 0.068676 0.081748 
0.079406 0.057582 0.065519 
0.068140 0.054396 0.054745 
0.080784 0.054526 0.050776 
0.078462 0.081538 0.042731 
0.079477 0.065209 0.037594 
0.096978 0.088119 0.056599 
0.088704 0.075970 0.074594 
0.094476 0.060549 0.059535 
0.069757 0.053961 0.055795 
0.098981 0.087201 0.060210 
0.076819 0.066910 0.084821 
0.099857 0.088848 0.044302 
0.071332 0.066383 0.041249 
0.083418 0.076889 0.065325 
0.069372 0.064160 0.084664 
0.070639 0.059343 0.072951 
0.097609 0.085484 0.063479 
0.038017 0.067224 0.044548 
0.056622 0.074376 0.061246 
0.040008 0.090067 0.046772 
0.084912 0.088505 0.041042 
0.101572 0.073094 0.037639 
0.088665 0.069068 0.037610 
0.058667 0.073048 0.051138 
0.049977 0.078259 0.061855 
0.080881 0.071228 0.037596 
0.085628 0.060833 0.037595 
0.034501 0.071819 0.048325 
0.076961 0.080196 0.040496 
0.034184 0.079461 0.052369 
0.059027 0.070474 0.045935 
0.085496 0.054159 0.056167 
0.043538 0.064505 0.043484 
0.074531 0.076602 0.040350 
0.088615 0.087648 0.047488 
0.075273 0.075053 0.064756 
0.081099 0.065244 0.077008 
0.079330 0.075695 0.065215 
0.043527 0.091402 0.041725 
0.090105 0.065085 0.070326 
0.098357 0.064927 0.063252 
0.045888 0.083165 0.054545 
0.046319 0.083353 0.052963 
0.066512 0.055566 0.051924 
0.097520 0.066247 0.040542 
0.045665 0.067540 0.039282 
0.104671 0.081414 0.057843 
0.097241 0.067686 0.048938 
0.069262 0.062897 0.044528 
0.097861 0.087418 0.059402 
0.051663 0.066499 0.073889 
0.046669 0.063520 0.061207 
0.064995 0.073544 0.050337 
0.099621 0.071048 0.045555 
0.032843 0.074124 0.045711 
0.102656 0.077314 0.040782 
0.049291 0.079268 0.056708 
0.094041 0.072537 0.084681 
0.054419 0.075700 0.075496 
0.052698 0.076771 0.049250 
0.065425 0.072098 0.078422 
0.089449 0.061005 0.037604 
0.099005 0.069595 0.044080 
0.068751 0.068907 0.043533 
0.061420 0.056611 0.060408 
0.068694 0.060038 0.046209 
0.082414 0.073968 0.073819 
0.102404 0.077547 0.046362 
0.043953 0.069104 0.065365 
0.091172 0.076604 0.037613 
0.052157 0.059589 0.059207 
0.103571 0.079593 0.067647 
0.076443 0.053619 0.051920 
0.101316 0.080816 0.072299 
0.077924 0.059994 0.037622 
0.065383 0.065827 0.045166 
0.047339 0.081884 0.054179 
0.102894 0.072167 0.057248 
0.072581 0.056562 0.067984 
0.095868 0.075211 0.083313 
0.071085 0.053715 0.058338 
0.056783 0.066446 0.044115 
0.031851 0.087157 0.041317 
0.048726 0.063002 0.063251 
0.063410 0.072743 0.076462 
0.052499 0.060417 0.062409 
0.068761 0.074249 0.062352 
0.104445 0.080126 0.062178 
0.080432 0.057489 0.064688 
0.093383 0.085148 0.037610 
0.094970 0.086283 0.037627 
0.095920 0.071133 0.037628 
0.084023 0.086825 0.043094 
0.087560 0.072289 0.083111 
0.094507 0.066212 0.074230 
0.096045 0.083685 0.065660 
0.052415 0.076295 0.055201 
0.086545 0.058031 0.038196 
0.044797 0.092655 0.038400 
0.076032 0.078714 0.045554 
0.088029 0.058006 0.060772 
0.083154 0.053855 0.058615 
0.072979 0.056174 0.048293 
0.035021 0.070273 0.044424 
0.091768 0.086870 0.052990 
0.101766 0.086241 0.041077 
0.076475 0.079212 0.044118 
0.075559 0.070875 0.081730 
0.063746 0.058252 0.067708 
0.101157 0.070485 0.039076 
0.088397 0.060041 0.045740 
0.074885 0.074046 0.037585 
0.074883 0.077730 0.044499 
0.087174 0.073377 0.037611 
0.051312 0.077347 0.061511 
0.071673 0.068413 0.039962 
0.095542 0.065907 0.047483 
0.075771 0.062010 0.075082 
0.099345 0.069724 0.042842 
0.089706 0.080989 0.063147 
0.100123 0.066375 0.058664 
0.050037 0.066112 0.070729 
0.078247 0.070566 0.082204 
0.066136 0.071925 0.046646 
0.094795 0.075097 0.037626 
0.077593 0.059300 0.042890 
0.061754 0.058248 0.049154 
0.046290 0.087161 0.044047 
0.081760 0.060907 0.066962 
0.054778 0.074285 0.078986 
0.094521 0.067691 0.078648 
0.088914 0.072708 0.083515 
0.041268 0.091409 0.043738 
0.104461 0.081920 0.055183 
0.085705 0.056457 0.060596 
0.049527 0.086458 0.037906 
0.088092 0.088703 0.045016 
0.052517 0.068578 0.078625 
0.044665 0.062554 0.051729 
0.043847 0.075542 0.067776 
0.081701 0.058825 0.042217 
0.076332 0.055102 0.064254 
0.083317 0.060943 0.037590 
0.103865 0.079445 0.066120 
0.104494 0.080665 0.054943 
0.073756 0.060604 0.074218 
0.079223 0.084234 0.038000 
0.087378 0.086769 0.047736 
0.091697 0.083496 0.060985 
0.066625 0.058589 0.047728 
0.102460 0.081549 0.038571 
0.036113 0.069088 0.046612 
0.046742 0.061499 0.053057 
0.051013 0.059867 0.051316 
0.042380 0.063960 0.048435 
0.058491 0.074050 0.062662 
0.071705 0.072423 0.074293 
0.101646 0.069099 0.064518 
0.071359 0.071619 0.040973 
0.037223 0.076735 0.057563 
0.064702 0.069608 0.045772 
0.052072 0.074127 0.078429 
0.062344 0.073412 0.054703 
0.080774 0.056536 0.063557 
0.081237 0.080695 0.052535 
0.053857 0.076328 0.073194 
0.064153 0.068886 0.085883 
0.031589 0.088478 0.038656 
0.090537 0.090570 0.043126 
0.092188 0.079053 0.070258 
0.054618 0.058933 0.060507 
0.067696 0.073732 0.064985 
0.091438 0.059946 0.037784 
0.083114 0.081027 0.054365 
0.050831 0.077744 0.055842 
0.081436 0.085392 0.040997 
0.041989 0.065226 0.055448 
0.071912 0.075511 0.058364 
0.033060 0.073034 0.039742 
0.072801 0.063122 0.080693 
0.094030 0.079596 0.071715 
0.055805 0.062170 0.069370 
0.046394 0.065711 0.064562 
0.075968 0.072982 0.073207 
0.063397 0.073363 0.051573 
0.103740 0.073766 0.059459 
0.095254 0.091062 0.043467 
0.094497 0.071188 0.037625 
0.053882 0.065816 0.075672 
0.043137 0.067255 0.038990 
0.079140 0.072115 0.078373 
0.056737 0.073074 0.047364 
0.088391 0.089687 0.037610 
0.049799 0.065732 0.069517 
0.101944 0.082422 0.067284 
0.104806 0.080147 0.058548 
0.059132 0.073410 0.058455 
0.090171 0.063992 0.037608 
0.043702 0.092036 0.040603 
0.033192 0.072939 0.037888 
0.061735 0.072263 0.080694 
0.085398 0.074097 0.077013 
0.043058 0.063889 0.053836 
0.036098 0.081049 0.054640 
0.099784 0.071332 0.077714 
0.036076 0.086735 0.050179 
0.075157 0.076316 0.059270 
0.068454 0.066401 0.043945 
0.042244 0.067749 0.060766 
0.081986 0.067233 0.082202 
0.081631 0.073011 0.076927 
0.059488 0.074215 0.069542 
0.098931 0.069928 0.045344 
0.096805 0.062816 0.055371 
0.066837 0.061647 0.076922 
0.103283 0.084424 0.051600 
0.076941 0.075287 0.065003 
0.037997 0.068982 0.037693 
0.054294 0.075062 0.046727 
0.037457 0.073986 0.057454 
0.038783 0.067477 0.052270 
0.058341 0.064215 0.077191 
0.099065 0.070109 0.049563 
0.053442 0.076061 0.047413 
0.054765 0.067591 0.080260 
0.062683 0.066827 0.045450 
0.071990 0.072955 0.040649 
0.097031 0.080972 0.037614 
0.062386 0.059423 0.047805 
0.052339 0.061254 0.046424 
0.049610 0.081381 0.046703 
0.074604 0.075542 0.062221 
0.056670 0.071974 0.045382 
0.056349 0.057905 0.054601 
0.089107 0.075431 0.077545 
0.082398 0.075068 0.070013 
0.096488 0.063640 0.063261 
0.102513 0.085786 0.050579 
0.055017 0.072103 0.081634 
0.041287 0.064849 0.051400 
0.070421 0.064498 0.043086 
0.038630 0.090392 0.046163 
0.035698 0.072312 0.052662 
0.066728 0.071839 0.079251 
0.049796 0.080204 0.049837 
0.073870 0.071770 0.037582 
0.047773 0.061180 0.049977 
0.097617 0.076883 0.037628 
0.036786 0.080008 0.056019 
0.075946 0.077101 0.056750 
0.058786 0.067621 0.083860 
0.104151 0.078407 0.065152 
0.075758 0.078267 0.048878 
0.085382 0.061498 0.065055 
0.051569 0.078671 0.045814 
0.100190 0.086383 0.061697 
0.070125 0.054136 0.053715 
0.049206 0.079994 0.053522 
0.102711 0.084749 0.061430 
0.074858 0.074518 0.066566 
0.090810 0.083938 0.058598 
0.075820 0.059903 0.042923 
0.041495 0.069179 0.061137 
0.058113 0.058398 0.062981 
0.076901 0.076108 0.037594 
0.049270 0.060435 0.055853 
0.098815 0.085115 0.064365 
0.096066 0.089470 0.049478 
0.087510 0.066836 0.080209 
0.092627 0.084502 0.060309 
0.045681 0.062595 0.046608 
0.030702 0.079561 0.041257 
0.078677 0.078032 0.057234 
0.076342 0.061119 0.072938 
0.034118 0.073417 0.049917 
0.101656 0.081934 0.068763 
0.068666 0.055956 0.065595 
0.082857 0.065945 0.077826 
0.041662 0.064974 0.044269 
0.073103 0.061677 0.076713 
0.098281 0.065553 0.038021 
0.095068 0.063929 0.065115 
0.063093 0.073046 0.075237 
0.042766 0.090552 0.043984 
0.046691 0.069754 0.070836 
0.077628 0.055540 0.064356 
0.077460 0.073020 0.073884 
0.064712 0.073659 0.051600 
0.078474 0.053619 0.060620 
0.055643 0.074183 0.050157 
0.060955 0.073873 0.069900 
0.075653 0.070407 0.082974 
0.103408 0.078273 0.070497 
0.084217 0.082381 0.052584 
0.101140 0.073597 0.045011 
0.051834 0.077182 0.041746 
0.079461 0.070842 0.081679 
0.077079 0.081175 0.037816 
0.054163 0.061954 0.067311 
0.066192 0.055079 0.060283 
0.077386 0.073048 0.037595 
0.055705 0.064479 0.074756 
0.033936 0.091430 0.039623 
0.076695 0.062072 0.074191 
0.068705 0.054145 0.057338 
0.103174 0.076627 0.072858 
0.085676 0.059101 0.041876 
0.099070 0.080849 0.073624 
0.082269 0.064593 0.072165 
0.033485 0.079947 0.051023 
0.088922 0.057547 0.059815 
0.064507 0.057263 0.065908 
0.103292 0.085498 0.057609 
0.039418 0.066248 0.050272 
0.070292 0.062742 0.080466 
0.083003 0.064487 0.071054 
0.094556 0.070982 0.083944 
0.045161 0.062476 0.048207 
0.101637 0.070708 0.070416 
0.069605 0.058812 0.046824 
0.042712 0.064325 0.044822 
0.045469 0.070530 0.069391 
0.098697 0.064660 0.057191 
0.085984 0.075435 0.037611 
0.035538 0.076883 0.054773 
0.085794 0.074866 0.074314 
0.087615 0.069179 0.084049 
0.092087 0.076979 0.077073 
0.102260 0.080864 0.069985 
0.086214 0.077727 0.066018 
0.088867 0.063226 0.037605 
0.041129 0.067463 0.058181 
0.089718 0.060390 0.041090 
0.094803 0.087765 0.055329 
0.078472 0.072496 0.076616 
0.095933 0.066394 0.073569 
0.065388 0.071828 0.079920 
0.070534 0.071527 0.042343 
0.101923 0.070481 0.068048 
0.088635 0.060065 0.041817 
0.102378 0.084628 0.046398 
0.102534 0.079460 0.072697 
0.031126 0.081132 0.044159 
0.045333 0.066871 0.064632 
0.073067 0.073035 0.071419 
0.051109 0.077423 0.057143 
0.096323 0.062903 0.054045 
0.094209 0.068009 0.079927 
0.074805 0.076619 0.057153 
0.081107 0.080220 0.053816 
0.085343 0.080792 0.037600 
0.062589 0.072843 0.049939 
0.099254 0.066591 0.055241 
0.050933 0.076345 0.039239 
0.100987 0.069856 0.071129 
0.091472 0.067137 0.080069 
0.034629 0.072182 0.049603 
0.094326 0.063569 0.049632 
0.082713 0.054340 0.059831 
0.038992 0.093919 0.040006 
0.065889 0.070569 0.045770 
0.079924 0.061231 0.037595 
0.056859 0.073449 0.048923 
0.045016 0.065605 0.062197 
0.052703 0.076751 0.064674 
0.069346 0.070904 0.082601 
0.100312 0.072498 0.078250 
0.076100 0.058543 0.069437 
0.094400 0.062092 0.062105 
0.081003 0.085488 0.039796 
0.098025 0.068745 0.048923 
0.090969 0.091429 0.041313 
0.054103 0.058768 0.052774 
0.085393 0.058379 0.046525 
0.058080 0.071497 0.046204 
0.077957 0.053277 0.052842 
0.079346 0.062997 0.037596 
0.100447 0.088254 0.054092 
0.051921 0.077714 0.042912 
0.086377 0.064613 0.069145 
0.093406 0.083214 0.063591 
0.072208 0.064145 0.084194 
0.030914 0.087397 0.037628 
0.100707 0.067170 0.061400 
0.083042 0.055710 0.061385 
0.047811 0.083111 0.048758 
0.048758 0.082281 0.047548 
0.090212 0.067473 0.081781 
0.083555 0.071316 0.081953 
0.056264 0.058044 0.058744 
0.101862 0.074435 0.043019 
0.093085 0.076380 0.080643 
0.055088 0.060510 0.047203 
0.073924 0.056756 0.068029 
0.079706 0.063284 0.072825 
0.103289 0.080773 0.066999 
0.071799 0.061564 0.077086 
0.081266 0.061175 0.037592 
0.098344 0.075319 0.082287 
0.053304 0.060674 0.047216 
0.093765 0.063514 0.037616 
0.082301 0.059748 0.065492 
0.068762 0.055537 0.050561 
0.055699 0.074052 0.048143 
0.088914 0.075239 0.037615 
0.040015 0.071844 0.060922 
0.077989 0.060096 0.069723 
0.052725 0.070444 0.041473 
0.079933 0.080182 0.051847 
0.097111 0.085891 0.037629 
0.031897 0.079550 0.047097 
0.060915 0.069331 0.084915 
0.065941 0.064041 0.045361 
0.088095 0.073641 0.081531 
0.069239 0.058360 0.070985 
0.073616 0.053688 0.052941 
0.083881 0.080613 0.056415 
0.091485 0.058586 0.059516 
0.073010 0.071752 0.078380 
0.092718 0.078036 0.037622 
0.096726 0.084682 0.064511 
0.070850 0.075686 0.051226 
0.089472 0.058993 0.049685 
0.053877 0.062617 0.068485 
0.085171 0.079536 0.060410 
0.083251 0.081196 0.037591 
0.065265 0.061860 0.076675 
0.055054 0.073630 0.080086 
0.079337 0.075369 0.037597 
0.104455 0.076415 0.059469 
0.063961 0.073549 0.060080 
0.085614 0.058581 0.039666 
0.032154 0.088643 0.040047 
0.066120 0.073594 0.065179 
0.078374 0.062716 0.073416 
0.064295 0.073672 0.058039 
0.099740 0.068754 0.072560 
0.041568 0.086119 0.053073 
0.057085 0.061450 0.046275 
0.070369 0.075044 0.048039 
0.040545 0.067486 0.056963 
0.037187 0.085121 0.052805 
0.050377 0.062986 0.065385 
0.090977 0.077060 0.074768 
0.036164 0.092751 0.040525 
0.095907 0.061438 0.055886 
0.052427 0.062111 0.045294 
0.057070 0.074974 0.066797 
0.101262 0.073432 0.050256 
0.030582 0.086135 0.038033 
0.046126 0.062319 0.056893 
0.100414 0.071747 0.050610 
0.089890 0.067022 0.080421 
0.082990 0.084093 0.046902 
0.058069 0.057870 0.051788 
0.033491 0.072617 0.045138 
0.070148 0.069817 0.085403 
0.040344 0.094369 0.039301 
0.103730 0.074057 0.062776 
0.053793 0.075141 0.044605 
0.042616 0.066240 0.040629 
0.034161 0.082049 0.051608 
0.073628 0.075940 0.058891 
0.055368 0.058193 0.055691 
0.052574 0.059091 0.055090 
0.086909 0.070625 0.083914 
0.102331 0.084406 0.044797 
0.099736 0.088452 0.055192 
0.044248 0.088075 0.046607 
0.054659 0.074650 0.052820 
0.098160 0.069053 0.076707 
0.054339 0.075068 0.050060 
0.101155 0.071727 0.040833 
0.061112 0.073353 0.058811 
0.099225 0.078918 0.078470 
0.051054 0.079782 0.041437 
0.094952 0.090644 0.044826 
0.080603 0.083742 0.042711 
0.035531 0.075587 0.054430 
0.056454 0.058511 0.050959 
0.083777 0.053528 0.056061 
0.060813 0.073788 0.066377 
0.088264 0.079730 0.063843 
0.096737 0.089775 0.048032 
0.081148 0.083700 0.044176 
0.100493 0.071791 0.043460 
0.042093 0.082622 0.058159 
0.083884 0.084062 0.048338 
0.044410 0.066817 0.039749 
0.065855 0.065661 0.086137 
0.093372 0.059636 0.059299 
0.063962 0.056013 0.052546 
0.095678 0.064655 0.040844 
0.098450 0.070123 0.037632 
0.093353 0.068945 0.037620 
0.097729 0.073132 0.037631 
0.100716 0.073874 0.078890 
0.093903 0.089429 0.048544 
0.088581 0.083809 0.055293 
0.065983 0.057931 0.068528 
0.068424 0.061632 0.077305 
0.078818 0.066384 0.037595 
0.051808 0.077743 0.049541 
0.039237 0.083188 0.056090 
0.069056 0.072003 0.076999 
0.095648 0.067062 0.037623 
0.042272 0.079088 0.063006 
0.057033 0.073506 0.053958 
0.084071 0.055433 0.060407 
0.071412 0.062320 0.043638 
0.103824 0.083100 0.061039 
0.057453 0.057949 0.060443 
0.085443 0.079413 0.037595 
0.076157 0.054436 0.062972 
0.102402 0.070747 0.058027 
0.080775 0.081267 0.050025 
0.072044 0.075658 0.046332 
0.076212 0.073673 0.070447 
0.102486 0.083274 0.064607 
0.091910 0.092110 0.040200 
0.048477 0.061360 0.047848 
0.103764 0.083400 0.052602 
0.090678 0.061501 0.043379 
0.082899 0.083209 0.048578 
0.087552 0.090272 0.040883 
0.060052 0.067319 0.084552 
0.064642 0.071770 0.047188 
0.069576 0.072483 0.074057 
0.058981 0.074492 0.071256 
0.061677 0.063444 0.078320 
0.052841 0.076251 0.060973 
0.035016 0.090037 0.043710 
0.060403 0.070877 0.046651 
0.054008 0.075899 0.063162 
0.052603 0.077061 0.046855 
0.092055 0.076178 0.079721 
0.053648 0.061701 0.045843 
0.051058 0.073146 0.078261 
0.039824 0.077353 0.061402 
0.084385 0.064278 0.037596 
0.094163 0.064483 0.046907 
0.079366 0.057232 0.046203 
0.041485 0.089716 0.046746 
0.103569 0.077994 0.052533 
0.097372 0.067040 0.042466 
0.059639 0.069142 0.084591 
0.084118 0.079322 0.037594 
0.043339 0.086700 0.050784 
0.070216 0.072163 0.075953 
0.039155 0.066263 0.047991 
0.075140 0.071371 0.080042 
0.080802 0.063498 0.071515 
0.101868 0.086980 0.057950 
0.059896 0.058050 0.063730 
0.083742 0.072181 0.037603 
0.077417 0.055805 0.048226 
0.036711 0.082469 0.054488 
0.073289 0.073377 0.070107 
0.040732 0.069390 0.060025 
0.080031 0.079860 0.053078 
0.102928 0.081267 0.047776 
0.087156 0.066240 0.076371 
0.101803 0.078385 0.076707 
0.032790 0.073748 0.044392 
0.079057 0.053930 0.051379 
0.095619 0.078205 0.037625 
0.075372 0.063524 0.079785 
0.073920 0.070127 0.037585 
0.069782 0.073395 0.068544 
0.041364 0.092520 0.041859 
0.090443 0.086376 0.052239 
0.085610 0.081570 0.056132 
0.085102 0.074984 0.072886 
0.049523 0.075719 0.074831 
0.032034 0.089598 0.038063 
0.097287 0.087842 0.057999 
0.046597 0.089894 0.039274 
0.065933 0.072527 0.075066 
0.042898 0.066686 0.060363 
0.073339 0.061593 0.042700 
0.103004 0.079310 0.049239 
0.100581 0.076799 0.079751 
0.072726 0.076244 0.054492 
0.073139 0.057985 0.070220 
0.101557 0.078369 0.037619 
0.102969 0.075421 0.073527 
0.070352 0.060622 0.045306 
0.085857 0.066719 0.079544 
0.058212 0.074373 0.065251 
0.093661 0.086998 0.055751 
0.064063 0.073041 0.073566 
0.090731 0.071292 0.084958 
0.091907 0.061071 0.049464 
0.055444 0.070121 0.082488 
0.034832 0.091757 0.040717 
0.037753 0.087268 0.050866 
0.066996 0.073132 0.069619 
0.065203 0.057687 0.067537 
0.102753 0.085817 0.051852 
0.079461 0.061357 0.069833 
0.049804 0.061069 0.047704 
0.098424 0.064318 0.060791 
0.030362 0.084520 0.038103 
0.070131 0.055726 0.065729 
0.041670 0.068103 0.037568 
0.091266 0.068916 0.083891 
0.086063 0.072579 0.081686 
0.037800 0.088575 0.049086 
0.032381 0.074298 0.042085 
0.070827 0.059343 0.046043 
0.094751 0.066915 0.076409 
0.041403 0.066322 0.056605 
0.074923 0.065070 0.084344 
0.102649 0.080824 0.040033 
0.041910 0.064703 0.053282 
0.036032 0.084043 0.052703 
0.056928 0.068768 0.044149 
0.072828 0.053306 0.056955 
0.057805 0.060823 0.068218 
0.097198 0.067864 0.047284 
0.075406 0.056857 0.067542 
0.045190 0.082531 0.057192 
0.103711 0.073762 0.061513 
0.056998 0.058387 0.061554 
0.100365 0.070376 0.074565 
0.065553 0.073683 0.061962 
0.088702 0.073904 0.037615 
0.057255 0.074047 0.078615 
0.037149 0.068241 0.048553 
0.044444 0.067803 0.038733 
0.079383 0.065909 0.081587 
0.032990 0.075029 0.048237 
0.103669 0.082346 0.051502 
0.063665 0.056431 0.062836 
0.092310 0.083090 0.062476 
0.079803 0.081233 0.047991 
0.098932 0.069313 0.050634 
0.103676 0.077694 0.069118 
0.047936 0.065380 0.066372 
0.098410 0.089273 0.049398 
0.075519 0.077680 0.052497 
0.101157 0.073913 0.047020 
0.095600 0.085476 0.062171 
0.050771 0.064473 0.068669 
0.084068 0.073647 0.076912 
0.102627 0.078521 0.047421 
