ply
format ascii 1.0
element vertex 846
property double x
property double y
property double z
end_header
-8.188676894821761 -9.665942427701305 38.412560977784935
-8.658376657095396 -8.523781921933562 37.927144189395314
-8.363889161254486 -9.371647479621535 37.283918115017428
-8.839488709070618 -6.743111089093226 41.285127923837116
-8.968102596758143 -5.784744538588731 41.696565014576372
-9.016591023931143 -5.843954261262998 40.485433964768816
-7.858832535496458 -1.186083373115558 57.813671649661600
-7.852897766294443 -2.461859878598944 58.744324219909473
-8.293233359617028 -1.107002831564464 55.939890158533828
-6.463208975426499 -2.313408739225149 62.294017061880112
-6.841700126284458 -3.645602493002022 61.679270968130112
-7.602387966575972 -3.584404761371945 59.756687672511021
-8.291833150101771 -3.481854145129154 57.575351075610385
-11.529999995155199 4.764514728038849 9.126189235759631
-11.201347156763015 3.197343018477356 9.590925290244426
-11.052100734930548 2.174197431656713 10.191484110152722
-10.647830914438901 0.731556069684749 10.852126001665594
-10.578916874169023 2.691795419572002 12.395476410037379
-9.220655217026437 3.453539527351177 14.446411165808707
-9.067629268026675 4.757060227649007 14.746473084637477
-7.275111158707897 6.913308014549090 17.030798450777716
-7.480153004073915 5.625375703380864 16.746087001995118
-6.910711367210265 6.071464740566037 17.838761777389429
-8.291936223123654 5.183746379633478 15.745160898691964
-7.838045434030805 4.374316380104289 16.504304493532779
-8.817750908912002 6.039674200307859 15.006933075524676
-6.748641834327085 5.222504731018864 18.662238592112018
-6.364012798912593 6.448737286751612 18.945643742467833
-6.225430840852026 6.846864937838112 20.120100257078473
-6.324021915138506 7.699219779223521 19.287858662344107
-7.167409659053240 3.986282929719109 18.392105998725462
-6.911338498202379 4.382177565775563 19.523259484735920
-7.643335466978675 3.551002688810415 17.304242580193439
-7.801586354635454 2.781330901229343 18.167567950350090
-7.320611578714032 3.496696544513699 20.352276411744860
-6.848347064212480 4.737787565099422 20.621294980392722
-8.042649668507519 2.350685791006855 20.175634775198965
-8.003045843942765 2.627938745454452 21.243289115408231
-6.962215103573743 5.020895020469353 21.689011977186507
-6.492802675584085 6.014005258681314 20.902556216793194
-6.162596586820904 8.923328475602212 19.610880456682192
-6.129189221154659 9.123930134062043 20.669430018251326
-6.316799121143770 9.950127337233841 19.879984480220870
-6.356786349899556 11.143270133654129 20.366106150001961
-6.373418604070810 10.840883158593869 21.564554704157992
-6.511968395954303 11.881954849542957 21.039155524420703
-7.392409600435122 13.224997328965463 19.161039961728658
-6.982522656669087 13.017923616808210 20.573113572693444
-6.861261471477841 -5.597260340594421 8.227998313340919
-8.022465451794085 -4.513443828524467 8.839539726822160
-9.089611145352970 -1.905522279982611 8.007476496541427
-9.519803122310018 7.905121848278394 29.524536921791217
-9.162270050813985 7.865073180342771 30.536732284264453
-9.163807329628426 -2.211578671303819 38.926515323179096
-9.273088424433498 -3.239709196476479 41.646080116327290
-7.861888845404945 5.360342225994503 35.539558118016338
-7.994831562501378 5.938183116008340 34.495348818892239
-7.860746806740273 7.379894370691117 34.027430877382976
-8.216002722955693 6.549575957535432 33.433257567426686
-7.638349673767497 8.004844408678125 34.638913807938323
-7.849017004344693 8.616738765430954 33.580988323415340
-8.454085475192382 7.104647422569270 32.426496152070271
-8.565021589399777 5.639990419252471 32.867452117684707
-8.622395304067929 4.236755830207321 33.230001433617787
-8.700522348308869 2.745673636913607 33.555140885625640
-8.935903282152131 1.168459102047472 33.739715954186117
-9.201026566084348 -0.165234369336704 34.196987882617250
-9.066212847815303 -1.141058161505206 36.566484822332065
-9.170594260857207 -1.791654023428545 35.917602411968190
-9.206064778823546 -2.351066598199471 37.057100113357443
-9.382724914712313 -1.616052810401974 34.885420003140332
-9.373109204357139 -2.815837211637899 35.355918768179251
-9.166715475673037 -3.864709603671087 37.368030562896394
-9.202611348443744 -3.149250923639319 38.080496587054519
-8.165616229355740 -10.219672891589877 36.628756937108705
-7.762605688558688 -11.048565036610476 35.906596131969671
-8.907809535394597 -6.782512332485429 39.010283855528670
-8.688957596108878 -7.766731775346417 38.500091863838207
-8.964145292888283 -7.496186230291918 37.404596146139738
-8.716733454448137 -9.041594359440507 36.174336696989478
-9.031670202932242 -7.854524038986738 35.851560526686420
-8.840719581759027 -8.669442364861336 35.208947862612838
-9.104644348173435 -6.838621414820068 36.342966191384164
-9.340681995818889 -6.460200499477526 35.396326447823533
-9.124889699834219 -8.068002065697550 34.160135072235661
-8.741782153933729 -9.272899713126757 34.451163368479037
-9.043771490547936 -5.175742995398099 42.893492593058426
-9.240412629058371 -4.317911475715349 42.053208734670257
-9.167536819266724 -4.750096499507468 39.625174667608150
-9.037768369250372 -5.690917029644543 39.210519171149691
-6.373039038231512 7.273707157794000 21.185545948857065
-6.573932667232769 7.470261024720000 22.364818918892865
-6.175323316315722 8.448110534851565 21.635239414585431
-8.236604936331792 3.075412475655642 16.258668965934035
-8.462816808717752 1.603461762287201 17.988996501533389
-8.182862561874744 2.020406847658955 19.069308550608483
-8.667448521509369 1.143569895582242 20.008866596511226
-9.398927130344619 -0.003886751353739 19.904389317480714
-9.263320445083856 0.219704013835766 20.977735616779981
-8.644243516964508 1.701939526966506 22.235935114913783
-8.146495676329957 2.910529646242949 22.381308769992600
-7.542345519225185 4.079620838190210 22.269026471613358
-7.204484961562039 5.333814654354566 22.512948492203829
-6.361681332406000 9.469868045929863 21.863273145259363
-6.432713761391385 10.060790777221369 22.535934067788599
-7.364128892641480 8.891739868301801 35.186897596614571
-7.154101500079624 9.861911201294596 35.601977010363505
-7.364094197231180 10.198733685362464 34.616830602288850
-7.704307299734769 10.327323711470406 33.281753568809378
-8.045655264963289 9.734180326841466 32.671161645539868
-8.547271285444497 8.504956612615594 32.018116661565223
-8.900378128425682 7.587001543692177 31.452436842421896
-8.807197600111945 4.782849710427454 32.240965998601659
-9.177826435459940 5.299648966521334 31.329394526148175
-9.100602426251477 3.894643936672616 31.664765445649426
-9.086012810399820 6.521788857029586 30.944777233735230
-9.380678676652353 5.619287545415558 30.401716696074999
-9.659296915100171 5.825005309601309 29.528314927045106
-9.572499345939130 4.653961716868236 29.890450050569637
-9.591196409580593 6.892066156335256 29.199161021448894
-9.797507704124184 5.921577474739632 28.716873250303980
-9.881604421062143 3.700012615413794 29.411139544834150
-9.613530429022349 3.462709980653988 30.262815175293618
-9.456117830954986 3.250636880898311 31.064366370075927
-9.144854598569603 2.730618564562515 31.962366581905357
-9.668931613014374 8.013423851238622 28.705453297806415
-9.717088812206363 7.911979202616347 27.715736139462955
-9.771760953990759 6.298325834779515 27.875695270247896
-9.810833689368181 5.178799336964366 28.178674207144017
-9.996613816379977 3.904102493863496 28.541622367766671
-10.020152801229957 2.757495563963471 28.891817902726153
-9.618222979170623 2.322684975982980 30.544229419592622
-9.817051759323187 1.309857948681052 30.229007054994703
-9.580707628286202 1.084167679062022 31.027004324720075
-10.072367178753195 1.503946798045504 29.290058161041326
-9.992942478235717 0.297899347482445 29.754775591193688
-9.537673915330524 0.130454352782244 31.809903220033135
-9.295049599178792 1.147610767241869 32.125856932579218
-9.136290641523729 1.785030645092575 32.748956135974218
-10.010165379379957 4.353792480650923 27.759757408366351
-10.183884709620322 1.751077444882797 28.434793288715113
-10.345200229425059 2.150168114482093 27.661187912840219
-10.204689622851083 0.749123969259226 27.941024941829017
-10.200773425791983 3.553066950686201 27.406792539462845
-10.320403841074150 2.763304450512982 27.054140548608821
-10.509503102528360 0.002037091290073 27.580322126955160
-10.342288496217506 -0.486952919591959 28.316378046052062
-9.988245563299696 4.954111046750430 27.169840265702749
-9.768518575646015 6.437125394651604 26.902271791805003
-9.707507984755782 5.584488779601738 26.550092324454578
-9.816399280367111 7.380593953382937 27.356492080961942
-9.490140632686000 8.000283924625839 26.754552245469938
-9.134828915848836 5.965673505961992 25.951435676950780
-9.621655197323923 4.552190352895706 26.199413961628998
-10.056685260549751 3.234978040753103 26.446984532007878
-10.352806532065145 1.871545378880977 26.699523995804316
-10.559224170623267 0.516210494856425 26.962095084009341
-10.537384820317202 -0.853780804549534 27.239413304267782
-10.289838281846389 -1.758556534780465 28.735903611737587
-10.168013594534566 -0.765654081131433 29.248406239518204
-10.317954080379717 0.986581030108494 26.340482692556289
-9.989068664374365 -0.977580068542357 30.213978514480836
-9.997373172647464 -2.176216083373530 30.843803661830847
-9.814237998921545 -1.165275158759532 31.307013851073105
-10.091200903592101 -3.358122923266029 30.195190482195279
-9.918202504794051 -3.536094272942707 31.318204551936244
-9.664634803731577 -1.068811069753503 32.471000244110641
-10.326746301613161 -2.779229545663993 29.225680411673117
-10.160711113103268 -4.119430654257680 29.668016209680445
-9.522180251082748 3.662868653001031 25.824811134717375
-8.836812350217494 4.095098581611392 25.158832092947350
-9.360624005403105 2.736944682229087 25.437172238970007
-9.324850200434701 1.937780542505722 24.973298102755198
-9.916244300843470 1.468282915659728 25.677032035635015
-8.231507660337405 5.407017147817595 24.843723618192662
-8.208518000480336 4.601242759476504 24.352166198696985
-10.649025239541725 -1.725653942923928 26.926770069260531
-10.612097869255546 -2.249151356124416 27.572474714894682
-10.413558499987433 -2.493590114127271 28.232250203509118
-10.425061491987437 -3.483057724342571 27.885959592711487
-10.508692859849969 -4.472755436005387 27.798498243358534
-10.325366052936758 -4.552336356569346 28.606425366709164
-10.834370515248661 -4.056452811575723 27.064936796567622
-10.454903005352019 -5.418348597587330 27.577706748642900
-10.128144398065437 -5.158845962561905 29.573641504249380
-9.744079952531315 -5.124348637408877 31.910319177864743
-9.684015221852199 -3.862828057431585 32.622990388302640
-8.841457296198037 2.651982081424908 24.007522946978689
-9.363185538381558 1.284911455943158 24.349081945969434
-10.390831678137808 0.114113791292137 25.939957830839955
-10.498991301243301 -0.738699273827340 25.519386463788621
-10.737218514702393 -1.260299129844255 26.230540023203748
-10.091858022498091 -0.071321189438799 24.882974352749958
-10.565492394020280 -1.519691179037191 25.215380773593598
-10.760928689783489 -2.669266394862934 26.600041477093093
-8.404197293619028 6.280515347397480 25.253988086268564
-7.756206227209348 6.829917832696260 24.478293169282594
-7.604342490223456 5.133792869225800 23.556864029202892
-8.263294913016409 3.833624776578618 23.923000177352876
-8.371681220247025 3.154357934717442 23.182768946988290
-10.963539454582046 -3.583743168774673 26.343293243571111
-10.471578497172755 -6.506244488362187 27.372393123670864
-10.084263284660587 -6.784490493523345 28.174846145850964
-9.424875606251904 -1.200598953208678 33.658517018292386
-9.699380882801581 -2.474457932370419 33.159750529403716
-9.403988401958232 -4.070768923909990 35.080304051933602
-9.275971002083654 -4.214200542216280 36.134002705882558
-9.250944017323707 -5.055959335184248 37.130279931190763
-9.196396688526091 -3.628551119279981 39.283303200546115
-9.177014358199596 -3.797402000356271 40.510802606697133
-8.244627870031016 -10.603113197651336 34.767706032180342
-7.529649821089798 -11.790985065245442 35.120739467941725
-9.232132875561300 -6.154507291753582 36.918025226920342
-9.164713263987219 -5.665265840910633 38.193648362331970
-9.521831214741296 -5.451018972155141 34.499030690961469
-9.387739674957793 -6.476914079245541 34.016369755561968
-9.588833216624650 -4.019196971301305 33.754477053580175
-9.313490991886578 -7.069630869040268 33.285449774178332
-8.489701897768635 -9.995819098173685 33.706500853749361
-8.838488478637736 -9.475557810684846 32.519203129933764
-8.280683361652864 -10.807320697296033 32.771178511863006
-7.115874412016217 6.201140607907635 22.982637700453374
-6.911012923910191 7.257345965324967 23.458207157520782
-8.897105298245464 1.101183194074915 16.926336000023952
-9.231399781319254 0.401059742809725 17.845920477672642
-9.656920503447118 -0.329008759164397 18.843026301483768
-10.122649820880028 -1.218026931800182 19.806709971201510
-9.914171596894066 -0.866412791086758 21.933428142034209
-9.373547545402547 0.441827681079067 22.036755493943598
-6.872725968889718 10.851691998413719 36.236663785581037
-7.436717850856211 11.270755698187564 33.743406296199957
-8.620185692102753 7.287319621783570 25.647929213861033
-8.946467478188685 8.614594441229665 25.922728490703260
-8.201307131722192 8.934237608266120 25.251020717499561
-9.740684900241616 -6.056958254400933 31.172668040184707
-9.535861883337592 -6.452810322148382 32.452457942343337
-9.606924632135875 0.535676710612383 23.948071796827520
-9.454521125299191 0.641596235638764 23.121575572770610
-10.151202212780611 -0.726892225294488 23.743691864934782
-10.643416639480352 -2.472489551681817 24.719498033050904
-10.914052875304646 -3.125551204180217 25.428344536436711
-7.138637743861903 8.151420539352390 23.960598828830996
-10.785226392548397 -6.037919753663187 26.694011745082786
-10.238073298618017 -7.549280501333469 27.228728632823461
-9.771167962744117 -7.839891696119462 28.891817902726153
-9.893165920952796 -6.668341136411161 29.176425011574302
-9.821107642155191 -6.256224869710135 30.277838310407841
-9.222559073688922 -8.031776008746949 32.548861388011900
-9.039552351823545 -8.825876783964805 31.661042497193328
-8.037808136657212 -11.551100183036707 32.110999551161512
-7.649906187819137 -12.028693901771698 33.303930054005356
-8.832445617273001 1.848027478120976 16.085159362533332
-9.544941738775131 0.632574935637526 15.951358147039803
-9.971217255341273 -0.803905354540147 17.820863029718513
-10.362969841272880 -1.297395800934757 16.778544311327199
-10.589864240276333 -2.093788561928329 17.799380789959301
-9.981801451022971 -0.648407694375242 15.821136780500337
-10.580067605632255 -1.911670456557809 15.781340977639630
-10.715269851843846 -3.639526644789516 17.856657668210968
-10.752581163021624 -3.092515166259931 18.850107710488370
-10.728942390258622 -4.257676490432688 19.886958317024870
-10.601071364191066 -2.647793105882854 19.852080953969359
-10.642286142798998 -4.166290846628326 16.800179558279531
-10.305410252850423 -5.319949276028897 17.881707077352303
-10.703798948945058 -3.282940557177140 15.756015119367346
-10.015486317926221 -4.856147466581525 15.763251174087220
-9.089394541010108 -6.950849424050292 17.910327997401325
-9.773997271818788 -6.455226938115142 18.963322586592117
-9.069138922731110 -7.652156980175319 20.026261179961995
-10.134302762493370 -6.006464615901994 19.977543106525427
-8.245716947638934 -7.684117011177029 16.850652370209005
-7.438468935891050 -8.772553100022620 17.971122379286612
-7.768726321535135 -9.288302607828573 20.005387048152873
-8.454228136447814 -8.947425017647420 20.994804915165616
-10.501654799346408 -5.579909579762644 20.940161043860126
-9.990128788400019 -7.018542204079963 21.896696204821357
-10.700621221694309 -5.253289870260629 21.826474517167593
-7.600274420567848 -10.263138700633869 21.926752220451124
-8.853091964712442 -8.729677728893185 21.926752220451124
-10.611325199172992 -2.557172203186898 14.760939731912398
-10.520921105974228 -1.734575109306964 13.757202205589513
-10.370299939965376 -3.125033020281782 13.670772040482797
-9.513950768373283 -5.480995374013302 14.569297647265049
-8.911618778293326 -6.494788559166837 15.640229080222420
-9.843535014285171 -4.414616458590366 13.721184156156001
-8.788491127784646 -5.848148960897611 13.548409249847174
-7.393890863605780 -8.206475718716609 15.611280254216984
-7.284544703455567 -9.428540054728966 19.097545916238978
-6.446941970131923 -10.557785173974494 20.102734395822633
-9.464222727006643 -8.512382434004554 22.804034163966659
-8.735179396825746 -9.768181561347363 23.667843585158408
-9.943741004274626 -8.154333559297111 23.607651399015008
-10.788622546464959 -5.096484452907952 22.755152691900530
-10.805555874723771 -3.625967643322907 21.856585072645021
-10.052556299992810 -3.572260411339798 12.659338155971753
-9.958498053409398 -3.114318902437116 11.679397654435739
-9.289024890204962 -4.373880089433476 11.689982792094309
-8.253880376546940 -6.048950255724916 12.189209133504731
-7.763938427363816 -7.093329753213804 13.038523017203760
-6.812591615625144 -8.445604135720634 14.186354415131291
-7.382390442940552 -11.325146432849442 23.702632948437053
-8.105580191275658 -11.010438742759634 24.508958463009975
-7.514070542002297 -12.007329911089037 25.348729951467877
-8.844289194573767 -10.490598819444187 25.286602434284625
-10.250382492941416 -7.910287009115459 24.327481573870966
-10.580654741485167 -6.516677341723348 23.477328311501264
-9.802103397269619 -8.777870948422839 25.072241311801786
-10.605776909428840 -7.241939556974868 24.940220779570534
-10.923256733944818 -4.888946986190370 23.509168919300137
-10.988327049754933 -5.178784030569342 24.585453583361165
-10.895961600635516 -3.788733730182618 23.938672680731109
-6.714909036866048 -11.522499286992895 22.764934813984031
-5.970646224357048 -12.728822796689238 23.664678775643999
-10.880961802256225 -6.119931352439953 25.325083440262759
-11.014615638193513 -4.592032036517140 25.928473279672776
-10.948952770323938 -5.590918770722199 25.772777261541531
-10.096659007586172 -8.604167791436680 26.869553341591857
-9.654780716420328 -9.043275021340914 27.533180157286274
-10.443106489326301 -7.600470038249033 26.111419746328259
-9.750466464719960 -9.167867124263688 26.444189730064647
-8.973361668893471 -10.476170350338391 28.013920490312632
-9.399634871166874 -9.249534812663365 28.480591736209099
-9.251298750257003 -9.142306130782115 29.547203125618331
-8.747367331732725 -10.382700597321261 30.379201569255947
-9.094804847513673 -9.028251857065968 30.731533396308954
-9.487725793429217 -7.583580511281860 30.802647465026094
-9.985019633413279 0.070121455107045 14.938189576438662
-9.859983315095043 0.847946064852760 13.991497806601195
-10.426332232248356 -0.374016954617298 13.861697088211757
-10.563443211777754 -2.285644781421472 20.844380601902923
-10.424665914894113 -2.180545010574165 21.863273145259363
-10.388370486144145 -2.075558521280263 22.875594650193513
-10.677827415845762 -2.363605676475950 24.001271172402223
-6.103066306928490 -11.724483411436099 21.843205475334052
-5.594990141098657 -11.753310080927056 20.837531724057268
-10.397228383088237 -0.948514473647949 12.791540095432403
-10.420551165544611 -1.519703066170802 11.517296346964674
-9.823943960097921 -2.391647665042559 10.515532776891176
-8.301772398896530 -5.571879078062569 11.134795895318000
-6.115140235972574 -13.340010479325343 25.381201393487952
-6.915825457851204 -12.813926363968747 26.131324891817737
-9.377790833211730 -9.908509823162765 25.893979428333292
-8.885247946865890 -10.821705862114152 26.688497781116986
-8.366444696638107 -11.630535247147481 27.601229832742149
-8.202251841620431 -11.792197017104288 28.610235970412926
-7.807529732711870 -12.348885749250462 27.008179857008354
-7.361545356393363 -12.937102095634373 29.244618926014500
-8.107538606511918 -11.657453117729961 29.849009657863185
-9.659127942855383 2.189416935281550 14.247733062012765
-10.163037566358639 1.723631049315345 13.153249057180320
-8.963505403858440 2.606442456588838 15.267479442344470
-10.613156976467224 -0.138312892357002 11.672341788645245
-10.683935615009137 1.343212690194843 12.114651341227635
-5.012988478092358 -13.968387589590732 24.521213839355404
-4.535512194236869 -14.709945146154762 25.428344536436711
-4.269808005015607 -14.223016572242109 23.601307927565841
-6.597279020158867 -13.514012582010054 27.137631809263375
-6.344784625824992 -13.892415010811865 28.781561802450270
-6.400599420041514 -13.855453751298027 30.146329266534700
-8.019308180039774 -11.564888124990837 31.101719832804520
-6.205658234579442 -13.907472849668899 27.808813090837113
-5.230194932287113 -14.865412553694405 28.671185595534279
-5.350795476137264 -14.825188996352628 31.012057086210419
-6.424288220557417 -13.905618785231605 31.415160397082083
-4.262364148311439 -15.583768151520701 30.262815175293618
-4.331092593946244 -15.575963066366413 29.157474720364267
-3.249195364460471 -16.426850949918848 29.690655077744569
-5.383216342002480 -14.449006017962889 26.994638392281406
-4.167331351111560 -15.571923445430148 28.052262397015713
-4.282224554901880 -15.393378481425440 27.210013946193108
-3.328167663154804 -16.090962774685941 27.496418705346187
-4.515468624039500 -15.072659955929673 26.460952147615679
-2.593107445185552 -16.749591001762049 27.024415446101912
-2.521481141344633 -16.898338454206311 27.875695270247896
-3.312650790241738 -15.775912912641745 25.586678786244857
-1.467896223218894 -17.761887668801741 28.205466131893985
-2.247284488209456 -17.128661411175621 28.850010589598536
-2.375354395472268 -16.918682137541346 26.258791964484509
-1.547565223428523 -17.688847248867880 26.660902267586785
-2.293404804942811 -16.700179457755794 25.197539006369425
8.552798605330372 -2.525521063429065 55.837642353411468
18.392345216268733 -8.573776648224516 8.955914182291568
19.966427413010397 -10.037753456365538 8.687200654097705
4.062232225878708 -7.119363501161801 -2.437792968750003
4.445737333986060 -6.410179448237250 -3.755957031250004
-10.260676524327570 7.839074041602490 5.326987506876594
-10.444381087642453 6.440092432921769 6.071676145860642
-7.300117942673507 14.022795472541393 33.185634583132547
-6.982434832221330 14.430143062555580 34.130649882402786
-8.881795536439517 12.600347076463724 30.322897831827035
-1.534433264591939 15.829056084104046 20.452459818883778
-0.396394532334423 14.457090193430684 20.411027809211713
-1.409423174112666 15.261993882552016 19.561827425864116
0.294368673692370 13.822712889800199 21.581395481123327
0.430863664181813 13.265302014916900 20.690045026205180
-1.153883933891333 14.442927228116286 18.402784825054066
-0.091110057927876 13.095482273834454 18.577024636311840
-0.833889771402500 13.804400477961176 17.415633818920885
0.736576871182295 12.529236822941947 19.649395597246418
0.936809732897929 11.737954485757866 18.669335853217543
-0.279178977249724 13.039580581869297 16.598161696441338
-1.339742698906762 14.354878705067092 16.468195817186398
1.452525036638496 11.931757350391347 20.782705414473480
2.117445731491781 11.366537124014089 21.970124885987769
2.462419955470323 10.609523464791529 20.936743670521583
1.751547339858393 12.143526558741163 23.147356067686911
2.731050717626869 10.915646011273656 23.307992115117028
3.472150492105241 9.237270960873108 21.035745460180543
2.751294150062283 9.787044161936015 19.831144755178869
2.031765594220678 10.422293420650742 18.669335853217543
1.307959819706787 11.140650678870125 17.555640809092967
0.539322392089357 11.829649632687458 16.468195817186398
0.016214163966214 12.308506848827882 15.531667360413152
-1.899139140041436 14.567468691514334 15.137199448910712
0.798180637071938 13.537778274895629 22.670252882765176
1.392701034162935 13.071495050905371 23.944939123867808
3.194333157783299 10.433093251125282 24.533463068985412
3.606783582966260 9.534816424598443 23.387988971135886
4.025106182532566 8.698288733051108 22.275641096785169
4.466536622006510 7.863499815582176 21.131130712538507
3.034347243855538 9.034559766181928 18.690623994320084
4.211837195765305 7.666909127001206 18.676432508130080
3.422362766675231 8.432373397524586 17.455138031330094
4.887888513063094 7.044630574934885 19.960133845557021
5.206425246560596 6.269602669604009 18.747365438677726
3.729516754637136 7.654077251429335 16.269510301245806
2.720142494525086 9.104793359946269 16.338163037545680
5.557915234754778 6.526396787436306 21.263650967358700
6.055467110089555 6.033413333162829 22.604798125947774
6.607444242417128 5.178842403550656 21.432961257188538
5.573500562199524 6.933960273889911 23.737379050951148
6.555645966038357 5.666695302176150 23.998144733585509
7.606238724076476 3.833098820886489 21.641964899514122
7.028591034872704 4.338027179530544 20.251903679945965
6.367786095412420 4.912662249904113 18.889044016020023
5.632842996135842 5.574952383982080 17.569991939816280
4.978032947810378 6.243077229720285 16.265896565012909
4.221573150033250 6.867028694140614 15.111868561303547
2.050787596133127 9.725605040689926 15.274717459224251
1.632033167140363 10.503141986878562 16.424858606175704
2.264059434343870 9.115448024280230 14.067254339573315
1.194196880206056 10.484933151397035 14.218847041805594
0.008980531745540 11.947329330551145 14.460865933829787
-0.884406581774152 13.118153769353441 14.630757529189845
4.595499031550638 8.246073230567923 23.540974451553289
5.054045890711278 7.858647844907513 24.855807860329595
4.513005080870664 8.662053664421643 25.766987394781268
5.391731961824594 7.476194984123112 26.031592592192229
6.697455928292650 5.424095059926557 25.490061125785367
7.327342087794911 4.422871820024672 24.342912303994723
7.971407492736501 3.453311799895005 23.189203250017236
8.524424034804936 2.517795211308078 22.000123193464674
7.394468888584542 3.525003012545811 19.083428592735341
8.567566576235246 2.182479427748230 19.231522993277760
7.880841501711460 2.819172224549459 17.813702735263927
9.037657756794269 1.665530843529759 20.748407290139472
9.560375602485294 0.822674887860097 19.526766610494949
8.359552996153861 2.010205277152055 16.616206783241999
7.157031856154665 3.334065842029139 16.504304493532779
3.837786035862325 9.914165738315448 25.922728490703260
4.136506771751973 9.559032043419714 27.021710587965632
5.324808821174619 7.455892700211819 27.627326184368648
6.008048186366233 6.530344634771745 26.760045641930212
9.411842054983667 1.239164944915902 22.311999738814585
9.532491741284241 1.064065633151581 23.979378385827413
10.246281401476132 0.072271659836382 22.742105340808394
8.718767430187450 2.046280090032488 25.245084766966915
9.385087042393902 1.091306885539131 25.714803795326645
10.998446859716619 -1.090501270738720 23.221354392640858
10.882745618818312 -0.834060231976063 21.419441090246654
10.606979750939502 -0.381981768907311 19.736842048538005
10.024590249334571 0.108156969159781 18.178272174129411
9.590901505440860 0.678457527944820 16.681156846771643
8.840505392243429 1.297377374173181 15.300050636300737
6.445103703260089 4.007151588143854 15.209576051131156
6.041573802018328 4.749868444128044 16.381514250068850
7.071113273301557 3.200245053683044 13.991497806601195
5.901910202297949 4.617551129030309 13.897743921846564
8.110684439159904 3.239301023927688 24.722535750548900
7.933824531285987 3.222948033553884 26.391007548116079
8.848424343804888 1.317761151184793 27.689784113229585
9.903516519630157 0.088195291568445 26.407818530880853
10.929427804640497 -1.168994849044990 24.904081748237310
11.821851978618419 -2.274280753300436 23.477328311501264
11.512216290995442 -1.678236188177836 20.113154556990292
12.518732423166631 -2.945271815594646 20.531778620503335
12.149099979440926 -2.532703219279555 18.846567085699832
12.645520832967534 -3.374929529755805 22.179610365104374
13.440158527175724 -4.298258247278471 20.851228495711705
12.790853413528872 -3.333305169689305 17.523344846354785
11.771819605587600 -1.987088982990879 17.178374579503895
8.158645419799306 1.903247367004754 14.193574613409146
7.602867310446190 2.514775090391626 12.888118843426431
5.102046402678796 5.286979331945039 12.634346701523668
4.626873608627983 6.123344083005377 13.825657383315558
7.195784757783758 4.346738740284209 27.329956096031072
7.648589950137730 3.402083469287323 27.806235011732436
12.632908866357759 -3.549916885390367 23.954336045005721
12.257811110758219 -3.498400705275484 25.761195864609981
13.359578243221032 -4.855612585730877 24.296591761174181
14.433435996339011 -5.846194718332483 21.267043687841444
14.246588480399017 -5.398716611252387 19.600372264344301
11.209657725850445 -1.371544139438776 15.578711929070877
10.550993924750232 -0.693813545089202 16.904715311021253
11.259313540957049 -2.161765102635140 26.951233576105736
11.651373396558432 -3.204345304092749 27.520060663108513
14.059638807445648 -6.199107912234804 24.774117187181709
14.360227094155137 -6.196062934369304 22.972921370112473
-6.826889897673618 13.359595686665882 35.102360248011145
-6.732526864524678 12.310736824449640 35.631347396162084
-7.173601898609877 12.209318142914579 34.532165826192269
-7.474302337685589 12.333892519670515 33.200424346503482
8.021664259534932 3.490771051739178 4.312386827390835
8.674298614087242 2.505785679281046 5.650257631385514
8.879804416728581 2.029453489503349 6.891706091841141
9.109014566630597 1.361670437622053 8.283391526059408
11.764250581212108 -1.603903829577054 9.169723146139315
10.700401774889357 -0.760387840078990 10.522450799481488
12.009964232024792 -2.255551301012122 10.984562122196090
9.373739536255375 0.807258836567337 9.682504802364258
9.631550326782850 0.323127704328663 11.383683878574153
12.346695810234788 -2.745758379487959 12.712912617439470
13.396156097375640 -3.714957696666212 11.422332866994816
14.476682240949328 -4.749503942142351 10.143410550957357
17.601107160321540 -7.975885295004515 10.737373772319524
21.605373441465435 -11.561966861334232 8.779845438934110
23.434718595387697 -13.358344989313274 9.220019442097245
5.724836271860946 -4.682012496912352 45.097286806895838
5.222933083797048 -4.865896912403723 46.600914976806315
4.814184276690087 -3.894374866650765 47.532053004568937
6.434816648245556 -4.511708555471436 43.369218415356173
5.670630716270083 -3.539168155482594 44.202466941206055
7.316064372914932 -4.307370183704882 41.811912872603777
5.964942314680704 -3.968870694269976 53.087644650168272
6.670634850442396 -4.253108418009417 54.254599544175662
5.326959321505079 -3.557626767669811 51.628626627913434
7.679955566329125 -3.411750616940966 55.203502566897711
7.398254149574490 -2.063735641359739 54.683965622028623
12.160459950665677 -10.394936025562641 36.001974616865624
-2.710506421648422 -10.293090820700996 10.016603067903755
0.185977295440695 10.602472996686842 6.460810442656236
1.480098008307807 9.293355058659428 6.956638304857674
2.858645376494601 12.975300461530351 32.593341624235194
2.560219432135641 13.203735470522869 30.637911078240592
1.000842657518109 15.163857207700316 26.452572857159634
-6.931048277584599 10.818280266062263 23.131245787205035
-7.586734461084712 8.834476885484568 24.502828471674061
-6.875166288851157 9.313229327310436 23.455019076550201
-8.487158707174418 11.431869382477249 31.213729486853481
-8.401047028568335 10.199337382955132 31.731765894413321
1.673386614611858 9.309216760817090 11.707628246958793
2.577039178205192 8.108610210497966 9.310726022344584
1.626872532714026 9.081561482780197 8.101314987405461
3.851638278554684 9.479605138324908 43.811395316850948
1.810995427046119 12.945039955136835 25.105125773062976
-0.042472792786640 -15.590026302852923 36.012978480677774
1.011831745099820 -15.286589330425562 37.111986109887113
-2.887153222941861 -15.024361367369707 35.322854964846883
-3.358325855538629 -15.433411955730044 34.008995463613822
-4.756929540034424 -14.824352500613298 33.488665485290412
-6.056596869973381 -7.609350450905636 10.432591154425715
-4.298446573532246 -9.067582626984107 10.291223358341989
-2.497250348082190 -11.896178901387856 48.852814913728317
-2.923990811928134 -11.971839517315136 46.933232219379860
-4.410992621623225 -14.401466161831404 35.866237374419647
12.361511980771388 -9.042236797456992 34.833924662628114
12.448475677787936 -7.711592508324457 33.536677027275751
13.234036706479891 -7.365259175095360 30.172641372218052
12.384519719504754 -6.456183916132197 32.014400468103617
14.248850896423299 -8.550394284134159 27.548909483510943
14.509720006369029 -8.017781822474140 26.438598847589709
12.165743660711691 -5.217469247717709 30.484241411445531
15.644426866388555 -8.784854249986786 24.085545709878232
14.351348755576309 -7.169272415062326 25.525246605449528
-5.575445538077001 -6.587466261676204 8.130500357280415
6.524678808625350 4.777231405144549 4.774433469168289
2.715426342552755 12.498008542305609 29.297629564427982
1.792417699660887 13.684034860753897 26.682982104046499
2.307300888702902 12.815327970377313 27.024415446101912
1.868064465086608 13.262863836858083 25.962906814796952
2.793654569908352 11.979222538289942 27.509557392066810
2.943392166886462 11.507108598532081 26.729810744505066
2.970406825012189 11.162553012905649 25.798811065148577
2.347360672418551 12.043172243716651 25.392996970372582
-9.752365330529551 -2.045357477472148 9.364581979093183
4.687575726528057 6.431548644722726 38.317713699721921
4.495205248002571 5.850764592831996 39.606999094785309
5.003262295874702 5.156818941656870 38.098749007395412
4.211108796054797 6.530591178721672 41.180342075861908
4.406698100256814 5.162934458711906 41.039348446916911
5.409619069399937 3.856298322940736 37.828530543349160
5.561814851392024 4.576450247462352 36.375951411713778
5.075584177019629 3.237924343674541 39.279664369785685
5.730027838642680 2.570660388332910 37.642197300392908
6.077893334613064 4.101327182075757 34.454845700478224
5.586995899767421 5.285089262710353 34.870707762168806
6.145985243272968 1.351224516619638 38.003827526146523
6.440185797941615 2.127287453808293 36.123001884359432
5.835725885879809 0.505566554641354 39.795973586495833
6.641922323151683 -0.052275696867516 38.449034580467895
7.306625007367920 1.629106544970795 34.255943955897159
6.721269970558811 2.816605981292835 33.913114198201846
5.673965953000029 6.116384835437723 33.093179934218099
5.478577974384654 6.878980664567735 31.056894650071154
5.201634540081948 7.848710407261837 29.373315532227863
3.783437783679592 10.420413189326220 30.577961734845424
3.965177398397590 9.926648424653729 28.346951104516979
3.264011631777665 11.215549102983926 29.001956591974771
4.601795456381173 8.818419120187357 28.236075860776829
4.051911247500184 7.842752533159931 41.256226284795446
3.992339205707378 7.281881320789716 42.542064156027237
3.917909933926639 8.127516032100949 43.583345143842735
3.959488354144065 6.755697890213063 43.636827477232956
3.850734722597108 6.638384270022962 46.340384964217733
3.803248980616539 6.305075851539787 45.167726732880773
3.870098494780691 5.634460819462295 47.157470947245102
9.811835540534315 -3.510801431280894 35.789178335626417
8.963163412726704 -2.615871124718877 36.764260355466760
10.512131116702605 -3.258817323945437 33.418480299101944
11.130133243106512 -3.273656267641986 30.768965997667763
10.350929894292147 -2.207973662663248 32.036696609737483
11.803846002335259 -4.007692988276105 28.876617205566035
12.915287831223626 -5.481189177424263 27.083813701523876
10.149228389700014 -0.985534263142667 29.176425011574302
9.678884294808253 -1.026970969845437 31.649873205927566
10.427348470702082 -0.942789495041573 27.024415446101912
7.364543791432491 -3.146694571433164 40.815033639768458
-5.969833564984218 -13.197555608215106 36.723979849215119
3.888937278067514 3.920822744451230 47.054054722473069
4.507016426507794 -2.316513339353639 46.981583052303478
4.034028516840847 0.291044983481303 46.621723485556089
3.777646386073415 2.189241808386904 46.971224601134566
2.817811486035170 7.762561931740066 6.972126593141296
4.203319512895374 6.453021142132035 7.517694749216787
6.430544346752590 4.557672627656482 6.136962237561141
-7.502253063491430 -9.479922131642775 48.987097291193713
-6.696467741392679 -10.411681319448524 49.733358734356045
-5.205010332057199 -11.360140707400351 49.736667794320361
-4.140092860241148 -11.839656864567917 49.334804066610609
-6.195279334578309 -6.719665331850108 9.246872349171182
-8.335084387185479 -4.817137262322243 10.030294726343193
-8.987151065429844 -3.636792224728076 9.526605410883692
-7.326331732318207 -6.452628742889662 10.532829614824180
-7.211239448496543 -12.506531036152445 34.278049832464269
-6.689424566524685 -12.895899977645499 35.451421420887478
-6.752949297570690 -13.138007984910020 33.540369892759891
-6.305385847873103 -13.740723826086606 32.463583506258111
-5.814455782081795 -14.158733980856317 33.448034065488322
-7.326867808325266 -12.798758489264367 31.567944470693860
-5.474447389315468 -13.810552297664394 35.770828905417730
-5.265597012015117 -14.255990746875126 34.649954908996015
17.547296097046488 -11.446844846808631 23.572744795856629
15.948484542205463 -10.496741515469520 26.108574466218592
23.059593562244494 -13.868532403404265 12.452463763337906
20.784093371440388 -11.247718529149207 10.744321496115200
19.884343078126484 -10.820235376853342 12.441775882031095
21.510612956122571 -12.404460197641169 12.516617352434569
18.571923496600224 -9.340704240981152 12.320736124543084
19.184683680764717 -10.375624934102266 14.092512614130040
21.922975415851255 -13.292720686843950 14.182744399448383
20.940112553505497 -12.751998179206748 15.958591689407539
22.236598824210141 -14.196510634313148 16.016455885555406
16.948556378945277 -7.665521742757571 12.345642452047016
18.392488782462291 -9.800467538704792 15.354336409106212
19.708344285650476 -11.269942771334048 15.495478286796679
3.422927614141494 7.549313423516334 13.912164612469191
2.597170510437909 8.387450463938347 12.827299703206604
6.547239778027309 5.480226500087972 27.188599996024394
6.517013980139776 5.387748259762785 28.918413752186549
6.078673929971621 5.655391722480593 30.825097662840466
6.590915474980736 4.495974098772524 31.068102101301218
9.375304303384018 0.574312358818131 14.222457606658883
10.536642907098683 -0.685413169975780 13.840072398714984
9.789856568490103 -0.019264758261204 12.662908884481933
7.947188604559289 2.489887234296419 29.290058161041326
8.362732368005171 1.297569647130240 30.405468865662954
13.897761278757857 -4.607204971766346 17.978272390066703
13.427861854445668 -4.010499372130129 16.247827253295664
8.501814736885512 1.554943416539504 11.866633996793617
7.300674069543285 2.797849885105860 11.626496171456569
5.851674363802968 4.508353336057287 11.260866746232532
4.544116389326949 6.016822821132465 11.295932721872676
3.586787815398202 6.898662257432133 10.143410550957357
2.999168116720996 7.797712267656617 11.492662971612715
7.254197752369152 3.275571463358157 30.431731251727857
6.751825835314182 3.601083716935725 32.278084671841619
15.400616731817450 -7.366526331040624 21.618420825782813
16.543843426459066 -8.974541584402331 21.792991126558125
16.535661977810285 -8.547738600594455 20.054081528115496
17.178304158775628 -10.283603448462269 22.410971049491710
17.291240535534598 -9.321263783163309 18.619642366251753
16.052473228059494 -7.464012545793366 18.548601004777638
14.991799493594835 -6.104999636401439 18.331569117251085
11.603004378318763 -2.102777505282924 14.060038239747557
7.743131617543439 3.254251812325534 6.682781297861710
7.987452161532869 2.287629726561004 9.203246323187859
6.548578695678231 3.996094931986625 8.872749050646064
6.771870462731454 3.540072611132270 10.184613389839789
12.947780083341492 -3.614366539250454 14.572912643393504
14.753426427688824 -5.365680730477679 11.937414154300473
5.554730956656722 -2.347835298409744 43.308492843385125
4.935895613678277 -2.461313665340529 45.009173151193664
13.275435274722508 -10.010367580659027 33.603141455835917
14.238948324874011 -9.584375395808822 30.025978528780936
4.070021530090459 6.370675145158191 9.002574346512347
4.132666422265814 4.537564960704359 42.445116154695356
4.538497040143119 3.821991281184634 40.923598849626742
4.902592566441311 2.527405357543479 41.014032985196522
5.132271772935903 1.292411049633691 40.894652809584073
5.528702525495892 -0.091380933573881 41.306801732237126
7.157849156811186 -1.025268726923206 38.711542255224373
7.455460013977312 -0.120654022062844 36.767922039529381
7.234165019620169 -1.928495707937774 39.628809657139129
8.086313406720867 -2.034649106115862 37.963661836707331
8.863856149478220 -1.648570316998552 35.704764426139768
9.097668324050069 -1.064240660959156 33.957370675379330
8.283980048157611 -0.542788516888180 35.422038352767728
9.103993106482317 0.146973826470137 31.433799601084971
8.010482526105081 1.230316246656515 32.774882043180263
7.719771544919448 0.460059549376747 35.234671637446070
3.919054029632911 5.414335263086578 44.063946487607197
6.401549118242555 -2.109183476728816 41.375421661855839
3.778947446507109 3.208528719720584 45.456045539035436
4.302624863227545 -1.191060236948967 46.096532620212614
4.225518489905838 0.065692146578170 44.691391729888423
5.271623339750979 5.300416352232316 8.342155758468794
6.596976148185475 4.155273246682634 7.309274698550172
20.130467902406295 -13.508797242311541 19.932268206896758
18.576941244079734 -11.708760235310072 21.212728616179486
19.933376513572270 -12.243765601583281 17.243120029384194
15.949671560091188 -6.515514896526919 12.484534950442075
16.839557152858060 -7.739092751507286 14.164695162510563
17.361045376303736 -8.518645447771442 15.589568135735883
17.828395217698965 -9.450443641604890 16.947954071259609
14.159737206736400 -4.891104455834343 14.883923411504540
18.419079888198898 -10.600253605542843 18.434813745886547
19.402185939635082 -12.003853810066682 19.051654690088778
15.626866271508447 -6.748341800122893 16.937145365094267
14.801229710366378 -5.417103627278602 13.692375328796656
15.206882940230265 -5.980191888593470 15.528048486423895
16.267036020857002 -7.393166519718259 15.810283629178301
5.556859992585631 -1.133558657432276 42.258254204539867
3.895093965797435 4.035854218853314 44.113688772982385
4.517371103322020 1.973863536409053 42.380454892035502
4.782792164982644 -0.291631913464424 43.201270739139744
4.089836367445471 2.331020561075517 43.900375770542837
4.228398400477569 1.069871836666362 43.836315683078070
20.737305756076783 -10.636632445790973 5.664715004469106
1.453597297636868 -15.697524829164232 30.821356190805620
2.744593563236820 -15.560221011714908 26.533411839803581
9.490931503709351 -14.246000513947685 13.447714601094717
11.070492782836304 -9.102689282735909 36.456571647761152
1.870256811472697 -15.530886877242326 24.373745351275389
6.457814631531681 -12.585324315561778 8.473152316452218
10.762113197614488 6.604365939494405 -5.716699218750005
2.503078766331702 -14.737961134801541 13.411769374426553
17.900377637295083 -13.320909026034697 17.465909882199590
11.468607620699533 -10.882148674520014 3.405047946201725
13.549437886814394 -11.878513360544588 23.591790065664750
16.881377896079879 -11.015453969521454 5.696566285503491
5.342449910900851 -13.346494696958578 27.919272242296294
1.637220289390324 -16.646100240124309 26.396612911878290
15.266888312506492 -12.114697156498611 8.348692221773913
8.924797220268214 7.509243742516375 -2.112988281250002
17.959610305955160 -11.132512402410443 8.611296002043330
0.391495308953916 -16.745277822738483 22.453772244810956
13.341250427169504 -13.314634749044505 14.045606782497115
10.189680374095166 -11.647978433607248 26.516715980369728
8.514009339358742 -13.489540520889815 23.746847733565037
8.599445627318174 -14.095947322658422 16.911922496014146
7.630324196572281 8.636753814940738 -5.254101562500005
12.608337383441839 -11.556774039114909 5.974189482079697
14.077847160490911 5.192397759846608 -8.412500000000009
11.825231456679962 -9.096215749615254 36.526186470652391
15.201619243986544 -10.492238277383455 2.667110998169932
14.445111771349147 -12.900899180261339 10.782550107619414
6.965381153064651 -15.052438999204639 24.401462637207977
5.228388134359162 -14.650394122904563 18.935034468899268
12.254825012938811 -12.301301226763762 6.304195061830158
8.713800220545769 -10.118002661124354 38.376083966176516
9.557142471320470 -12.603580629342579 35.300810935576877
4.321826469852306 -14.479151363650908 22.588414568419978
19.409126409976984 -13.823147107812389 16.475417970769371
20.422941526087921 -12.852764863954226 15.267479442344470
15.545889228349663 -12.862635011187006 21.035745460180543
8.364864619181930 -12.588772818373736 8.849499099977807
9.140172382550766 7.751002044601774 -4.247070312500004
4.116952097675979 -16.272077310309061 25.816148195581057
7.263229106841117 -14.598642370087610 19.125772367485212
11.837035475635847 5.867144830090822 -5.297363281250005
1.264232910745501 -15.441299824768681 22.637541430456526
3.532196635079289 -16.016604762096453 26.068696271184972
8.728613401323365 -13.284995633959658 25.203487874986024
16.322142956704138 -13.235047506153105 20.617854984304003
4.114420300140574 -15.797267794635777 21.886672319305820
3.679286483371603 -15.477669817724152 18.587681069843470
2.455166985172167 -14.421047908045432 17.419225589617696
8.417662081532352 -13.342059991566225 24.652569724598532
11.561574246615725 -12.594598691114617 10.016603067903755
0.337570345765364 -15.563150283257324 21.715871319266185
14.048376039498645 -12.686701663623097 16.749693629648807
9.610403132166779 -14.631043363659440 17.673988135296582
9.799088712855292 -14.511204914702768 17.019994944376041
4.613042619044240 -13.291156064169284 29.852777532778049
15.881879501164111 -13.843863623765337 15.025024517399812
2.036797478730092 -16.005688142600551 15.097394022099637
6.394970142382552 -13.917645023544031 31.943779784132307
8.295679096674597 -15.451060286533336 18.651591566607820
6.491143586615357 -12.697445952511664 7.451187407897053
14.560487038308981 -12.579719766575206 10.463678044415897
17.429499185702522 -12.699509100265653 16.052617063906702
11.428519242360647 -12.786032322541903 25.224296211398944
18.398823076815582 -12.792117633783139 12.150146527906342
18.976661249772611 -11.905182442921801 9.149624059478814
3.809689789817060 -14.696880586180022 12.256724404984729
5.602111630661044 -15.375963960351568 22.709464404110772
6.615824099804894 -15.528159781509157 17.670403532232413
4.671981313796675 -14.757194656112029 27.726105088467467
17.340279943618700 -13.829807419274992 16.059848916651202
18.352548533590383 -11.837919445551535 8.522419780161027
6.479143990462167 -13.549261178997318 10.315329963487795
16.572220104073562 -13.957041802164472 17.910327997401325
10.151546878109949 -13.076083967322109 24.302772744604692
9.221105056218951 -12.586598557314877 7.227660657444651
9.555737810055255 -12.460029265791713 8.697114381000237
-0.645916723225649 -15.559871336589421 33.514518846205895
2.267927066013856 -15.560845750772620 21.846550805835047
8.511641433939973 -12.273542742271918 30.896168460805470
13.178321149289459 -12.515364939888372 23.963729671349789
7.433068703700449 -14.036232507926822 24.389147644351802
3.050051856511333 -16.845041473464658 22.578580633292304
4.917017046115271 -14.969501437313978 24.985314311461359
14.634681299896750 -11.109113053845597 5.412157383009214
9.458949304753025 6.734499139003086 -3.953515625000004
13.656045016316273 -11.096120384514318 4.891965113187027
5.473166330144529 -15.241567403916692 19.764798816648632
14.540282322115171 -13.149411845416969 13.512438899066826
7.311563293090403 -14.149872997684577 15.499097225494618
-0.254245764958534 -17.152760460923211 29.852777532778049
14.393085887021623 -12.182049515340006 9.351110796726436
10.059195532431604 -15.094132037247489 20.827256564742971
12.290343413493304 -11.054225856612950 4.388607310827928
9.978543708855709 -13.560864309801993 22.940512090950911
3.987709786496549 -12.501632295353197 35.017804752954227
4.887615971400501 -14.628594094179251 19.775279312535343
1.086412926126685 -16.176865819080486 20.816979197835931
