ply
format ascii 1.0
element vertex 845
property double x
property double y
property double z
end_header
-8.708676982855529 6.885743859981173 0.755609022464776
-4.395881243475069 18.950012288755183 19.965982475609721
17.645198869337953 -2.214335544877836 4.123167359363006
-8.491091752914929 17.562405658904925 43.502669190802564
-0.985377337458526 16.884227903038635 26.477832784308777
-5.233767053573135 -5.619247816415627 0.000349241110834
-7.633426102526829 2.437736235385922 13.554456899418721
14.331513719633183 0.858148506380949 4.439356704704217
-2.593062845931389 20.277170499746433 30.291446203140467
-12.108211698416889 -8.312499040831296 20.397094218102783
-3.320003057915163 -12.954535472673946 -3.238964843750003
8.900392888614103 -1.211583483700790 54.764629750071620
2.253359771518411 5.152408054891784 44.803969921169781
2.264704085357773 10.331354683509092 13.247776452325500
-8.987530250050762 -3.724843459204950 11.233693059215799
-2.006850839383407 7.449715655112935 63.517228750007590
21.528771524946066 -7.354731636280290 11.514234614570256
4.547217874050633 9.189212113842933 53.331383300194098
9.078494742079000 -3.716519680706383 38.434875985921863
-8.432111433503604 -0.433331118651567 4.673835135911029
-7.123608482656618 24.435049569466582 27.695901067485558
6.424801478195533 -0.943586381740408 64.205021718757592
1.828637110530436 -15.163944098135380 46.434712248136577
-8.469002729207730 -5.877287754561178 34.713231451398435
-10.989282783101537 18.160696503980152 29.539625635737476
2.696698673573283 -14.385339724963799 32.920009807384261
2.932299223606827 4.654919770013068 67.377580312507590
2.016881609597794 6.078723684163392 45.846799059766106
13.384446293799224 12.472367151232433 -0.274121093750001
12.829995476908543 -2.285490770443361 24.331088039731405
13.881584509261023 1.358606124533716 -11.471972656250012
-4.126903052017413 -12.087860237552269 0.000182914414852
-7.037246127513432 16.654340175851129 45.232737176813842
17.075012026101689 7.388324878059110 -0.717187500000002
11.719326515878436 0.824128798145703 15.127399028911640
11.049199922037879 8.281445408780577 62.013908437507581
9.385711814468326 1.435966011373355 55.079771403682415
-7.535178905922175 3.422993396074602 14.322258317842556
17.869279911020179 6.146326402885094 -1.274414062500002
-9.592717809022234 -4.240158951336326 57.149748281257573
-1.540339511500558 12.657643940673061 50.714390261871500
-9.924678824734720 -5.576907238938118 13.130623067142908
1.542491132504656 11.185728441175749 52.551270177460992
-3.971286752536024 -3.341090141036900 0.000424141921581
-7.148064212273517 24.300004187665049 35.432711121662216
-10.411721447029418 8.791758328748019 44.483686523586940
3.092688150788441 -10.291096861163048 0.001149060888942
-8.321064326762549 3.472794641816666 10.720556731099007
-3.251539173120703 -9.814379169424539 58.539494375007571
7.448924825204666 1.673903329875357 35.325691959075378
-1.419497638036426 18.434622456628485 38.200318251580228
23.208097819623671 -7.148837020719419 3.267255229447846
1.384871626560400 11.005679194194789 57.049748281257571
-11.844993252576485 6.666092963582865 25.945672037622099
8.912334913689497 3.524611820923197 19.345475330825714
-8.796151134095201 4.140681259138217 9.646318011392108
3.933041544650770 9.830824663657731 26.087118261964889
-8.109031523788266 -6.927135062586295 36.305287078215791
5.277731400390896 7.420757099010105 30.955047356958438
-1.973325272999610 12.316655053568411 51.543757619506252
5.628222163308274 6.965221872060150 17.873703548687185
-7.583911846145623 -9.875312920852949 0.000270325561440
-3.236363636751047 -3.702741570075180 0.002162975048223
13.792281742014929 -0.998676177873537 0.000028817873830
-5.981978523263129 20.928432172840441 42.474892478528794
-5.580295014693004 -13.700453909703889 12.957023774014058
-10.935959945128264 -8.031560688004262 15.264955758926895
-10.451350428961220 18.369408335404483 13.577204712327319
20.361691564917283 11.465421418764617 -10.084472656250009
-7.342197218071815 9.378790849186787 51.443552444328148
-10.558355280500736 14.422511767029945 39.565418196854694
-10.404724957494563 11.226704482388831 38.571089843747480
3.822097475584039 -19.543027253661126 16.098247470012261
10.503588883567367 1.490189308279445 21.982474171569482
-10.641638931797969 23.698787419881292 29.516081512748826
-10.336068321469078 8.010503679824197 45.511312586347131
0.546321311556252 7.739598248896741 65.404435781257590
15.297427022353554 -0.175891187305623 4.915680993865576
-7.404161562661757 3.062473000822674 0.000540238418327
4.882532083285571 7.858431393344176 18.527703562655059
-10.751280320027536 17.170754291049484 30.647921037706535
4.498047316064834 5.936393978133695 67.102482656257592
-10.561095497249498 4.874028101743402 22.039162547772978
-10.521487748374584 17.023395056103681 33.416010383591718
4.578796895689858 8.550001460217448 6.208313179897081
16.105562268354980 -1.180938766937844 -6.194824218750007
-3.244929036280336 10.269702775475483 55.135582375273728
0.530765104139352 -6.717386845244419 61.390763906257575
-9.322916595266472 -12.210643188632766 17.208735976749065
3.657039049034955 -16.456780036568045 5.065849857598994
-10.843592113882817 22.179019898284420 31.362138214578763
22.568714102595372 -13.969719725447501 5.279437583675933
11.493914333802314 -18.483608817262521 20.620560124824113
-12.453619368767940 -6.651762530905467 21.615572037345768
-2.047870652827564 15.813697204321519 5.929678495072566
-5.620294684167505 23.557922032210037 37.020771031986392
22.281761266377259 -11.669934537567318 13.490026956118616
-6.315337482861012 -8.927968688653232 6.399627004139208
1.593382478669617 -15.606074654231881 28.838747248157958
10.939686484342346 -18.201145742838285 21.762022928055849
2.958315416354091 10.548627945814479 61.822795156257584
3.055766353344831 3.762666032707685 48.470337797685801
-5.891576559177736 -14.924803243739600 18.621874954976391
5.298497390628683 -6.610595145649798 -6.856835937500007
1.762978669593223 -18.772439462568379 13.588580127909255
11.723787924511697 -6.171119945886356 33.966971551742759
-4.143309325120094 19.607126447481825 43.643256278340743
-8.488615086265440 9.560486233902147 13.960694980717934
-10.321792237746221 15.395151994804534 34.166501281563384
-11.946795959332652 21.503554503159524 23.569084370246568
20.216749581696693 7.734224476785845 -3.721386718750004
2.383740038313145 -7.346774364876899 0.000227918793173
-9.809341219196099 4.025668946072229 52.692325345897082
1.738632335918828 10.149182619161095 62.288615468757584
5.810249572633930 -2.352277950649720 42.398143878630265
-10.947930743852606 3.565893280528897 42.368427513462485
21.988790776418856 -6.389500370954145 6.647071202762123
2.349155346704360 -14.450865717598713 47.887281359387629
-9.545098265601608 16.379742711879288 42.749494612880099
-5.885188979601397 -15.002099108550288 19.762259809430496
-10.034494176966376 5.459335814242736 32.943678510460998
18.947279136782466 6.289199597544361 -2.088769531250003
-11.539084669038328 -8.238196645028919 17.368584690653222
8.011882306312611 5.742601422318176 66.026115468757595
-9.849714525332278 2.088082842219497 34.732794328875165
14.575880160052785 -0.350346052255696 -9.270996093750009
8.876967543073286 14.801001083256120 -0.537304687500001
6.257599276340155 -18.159507919230126 23.917956177614609
5.421703142409890 -19.240645364413378 9.507753627720332
8.117977110980227 -7.319787526774894 -3.345117187500004
-7.428826951398563 0.398820926548756 61.384709218757578
-4.258792045801150 22.263053947560774 38.822227121149687
-9.184166808869907 -16.340286433414359 -0.038183593750001
-7.033746552867326 18.675781834121356 43.958825466593886
-4.086919043901706 10.126946948874185 54.553580891584858
8.385811402972086 4.033109811769484 16.235818597969335
16.733123341920319 10.603379350942266 -1.292480468750002
-9.371304846088675 -11.774012220296752 15.910957898305842
20.134856226234135 -16.373815392000459 10.147720676015716
6.669667029044399 -7.262295876941661 0.000056693334136
-10.381035814217647 8.118961951905645 22.345906852606745
9.788802164370967 5.059248179339870 3.083227283513260
4.946169659336887 2.529510435611198 51.162587318197836
2.327010841570139 5.135885416695076 46.952191075621073
-2.133143316199117 -17.407722173371649 21.676359068988528
-0.966207232958761 -15.439211747234257 27.987235540004537
3.837535014619113 5.473496465857767 50.471101573363256
20.640130963679972 5.690105597084833 -12.134960937500008
-9.592303648275459 1.221028267371317 0.000442843000258
-4.656673185015875 -15.423534531255802 23.399758580629168
-3.250086605239174 16.596619005924897 11.031518860255133
-10.840458176086100 -1.368379438513860 19.680590926036377
5.311302896916895 -5.033966659327710 49.454703571506371
-9.612071258767649 23.915962945582141 32.807318774286152
5.560134043731943 -2.837660422295704 63.132365468757584
-5.088973176831720 15.881810461245829 46.625209994247371
7.554931744125957 -18.462680333995170 5.305991303634403
-10.420757926338068 4.930146632580116 30.801939123787580
7.072064538792429 -5.958591733771058 54.980177992395014
-11.534885117628859 16.965249473601052 23.579211387459868
9.316724308122904 -2.147206309869846 36.254313148488272
-0.515487051927035 -15.157081600826226 39.250693456190263
4.536798747845474 -18.240721860759148 23.754152095897926
-12.488655879520412 -0.208790355966241 25.148387650838586
-4.352019424189237 19.402707379921782 21.335541575759599
0.633611944413142 12.768526180984342 5.124047413936708
-10.195933302067248 17.813312861072930 17.277260179012170
-6.584884120439998 23.773807864733197 37.788282272416865
-11.101468232761087 -4.541981891519675 27.510856691113425
-8.893621062431059 -7.647073695056026 29.489146844462773
-10.198719304099972 15.938253405866567 18.930079186118167
-8.573346988154029 -7.786758467491395 30.356629954851375
-10.842039782489216 8.796064207492003 28.850536825567026
-9.930306054333128 6.183983942852405 7.390911489610569
0.062330443208890 -16.466640262248607 9.756812563403955
9.954794233493423 4.012587044066712 55.751145219273283
18.973561399797539 -17.194990600288179 11.097603933594065
17.440238367608710 -18.041508631661898 7.904790827889195
1.723641982667836 11.433277898461020 5.846951257633688
6.480402787688850 -18.521504953588142 6.208313179897081
14.893298407921526 -19.009682782712236 12.953253199450049
2.404146242391358 -17.863539720614472 24.533395303906008
-5.740216330260925 -14.785427676753530 47.672840012892593
-3.021403669792851 -11.705554821823037 6.472266651126623
-9.454857867521440 9.513908281123584 11.182161143425404
-11.671170171677188 8.225963286800273 26.354574451431386
3.610106271053609 8.545859548700218 51.525281624840552
9.068557281661082 -5.096192540350585 -7.250488281250007
15.255950360907173 -15.247681260857311 23.663458323296684
-12.394102414160599 1.236681945038534 24.711368801992066
-1.658127319946863 -14.092964568905323 36.109103964212274
-5.419224938657095 6.228517589440690 60.124748281257574
-9.291078959790591 3.103927032274898 7.059738016883370
-9.375803619443499 19.262076851080543 41.387603518829600
-12.796141762174877 6.552002194558951 0.000461699746647
-2.630821495174655 -3.139805129787494 0.000779744558919
-10.180706244362042 -2.723277433767939 39.805737879117594
4.839693114573498 -11.399540871850833 48.598412728361012
-11.108624362627033 6.443863336573442 28.560454641194788
-9.964535085316273 -5.126531594666459 28.992989796950415
12.561207438471701 -7.212888171139182 31.688931348594366
9.773165471498286 -19.053814676405430 19.743707557692520
3.340816162044872 1.035502107725286 47.426426028963448
-9.807451733237029 8.139810980742883 2.368336667201492
-2.870611833665210 20.843448126422622 32.565623035121050
-8.403971798569440 19.701335581939404 14.955509587672077
20.095375175560640 6.282075276109583 -3.329492187500004
2.116912289267748 6.332966955435544 43.778873016323082
12.615919221478814 -2.143461584862522 0.000083651576213
-9.914119803573429 4.516348517215221 35.800862679417939
6.183646885795403 -19.832141161132089 14.010127184804196
-11.591629312263203 20.093198454380001 22.268582124438375
-1.627573238563036 18.378203800071262 40.888571485235900
-5.740560625663170 -12.609347309344537 40.279462165136728
-3.860819771627201 20.938494074682122 26.530350665491422
5.222575462686145 -18.894846490110670 21.640612809600025
-1.356092603665168 17.599549229966247 41.887399071981989
1.686842027616180 -15.544086189087292 41.703576937329792
3.511439550759448 -18.462469047532668 23.092449269832724
-0.271907214553661 15.588835522262274 40.555604419409953
-11.560257626525830 18.468966058784652 6.865298618195447
-8.208830180050303 1.708689664592003 10.622175822676612
-5.977428708433899 -14.783663250309889 22.705664781085570
-4.702888351315641 20.392757748009839 42.969459391300163
2.802793663655027 2.920222317505998 44.902524069163874
4.855225963605987 2.347786414471940 40.047933417951256
-6.429805502977840 -8.630390758804879 58.570353750007570
-10.990839560445300 -10.572490439822429 18.986339810092129
-9.888623658339544 1.149286333331462 36.342808071260109
-9.205603367464466 17.694920979521040 42.554089437148690
-10.227406347881359 10.507537949241696 31.343342617885103
-8.916742723079340 13.952858798726187 45.028189796613773
-11.054367807288765 -1.521073528504150 43.630925739473824
-8.132729429420301 9.641591806319095 16.442106328227215
11.845953286493604 0.417588030888629 18.010106000494506
6.703015708516968 -5.384348800513754 52.992553913834854
-8.963034758271258 2.281696213267582 18.682095368908211
12.908600218046415 -18.349056627970782 3.655825205777584
1.066701820967673 11.082993084105501 55.911056122907283
13.411859437387974 6.788728576099945 0.000205766816746
10.914417426706978 -14.928607729684064 27.833364501827965
-10.076792624948238 12.407338272972430 33.427650686601723
-8.532604891422142 -6.711024246012506 8.432226174780311
1.069926428243126 11.216445052022685 54.674816793932223
-3.659623297819299 -15.809596653623984 24.123733043044005
-9.438388214576817 10.130993844802248 20.499783808410466
9.081176090225547 -7.964843368987120 40.585686297931147
0.905179196746813 12.910490334167454 21.367945395971969
-8.629484627059851 -5.682148644870392 36.599230093381884
-3.511567125810950 21.559824157841089 30.692937889901341
-1.439121855917406 15.320676738178447 45.864074455242800
10.188746442650794 0.750563849746498 55.766189856947371
13.223730150936083 5.174404090212303 0.000159316124877
-6.117478600066403 0.518163927307456 63.132560781257581
3.310013256165920 9.354033894383022 16.457382889082208
-8.811207553062644 5.351173310904016 10.306533389852614
-8.254498911491330 7.486110197965223 18.452300631897547
-12.153398562222042 2.669809643730209 24.278595137413998
1.167602325873407 13.256660342612880 37.796083860006455
-9.050041935555710 12.478348372481916 45.698757026498242
4.556550480494044 1.261270879879232 50.336984367199804
1.515980866244884 9.973232342179829 42.058625810041335
6.688119019731099 5.763971194523538 17.364780471238838
-9.759220585310317 21.686601162287236 20.437459546696569
5.310066886187980 5.065553211376115 52.112529662871040
9.298942845428211 2.942157442522217 55.170889523306890
-2.850127382769944 19.793851736901416 27.101191858907956
13.989626430309100 -5.117839512365924 26.102094670071395
-7.828400623089566 15.378636208049295 45.420083016539408
-9.381434704126100 3.273550476951812 4.581175764129854
-8.549231001832485 2.494952397307554 57.860099843757574
7.677900311658441 4.787385171577792 25.996972344895720
2.732504258354253 9.337644126817441 50.818261998612797
-8.967294217986256 19.000248309387249 42.073507511384534
-11.539350926003664 9.888319490069360 26.111073919527040
2.028167857943406 -6.295681255722831 0.000405514280545
3.966534480728944 7.196687849600327 51.272667509348977
-10.069278239654588 20.500317847332632 9.042598240825198
-8.563465690672301 -9.714067817417845 28.171954245500210
-6.894294379478959 -2.100012082834695 2.258024815034254
12.093249206174884 0.983080945495712 0.000290694068267
4.884696988831031 7.395184987688998 33.337320640341353
11.066981732898974 -9.974417546825091 34.858292839486566
5.558562467328816 -8.660322033342000 53.637363244952020
5.323692531240141 6.851326514520354 52.695043317160071
-2.554542069673950 17.258244165529334 21.230968655749582
2.219877605114844 -17.342770072639908 8.073847196021196
-9.630243439639171 -6.304416522210328 11.403336530026426
12.909657413291876 -19.378607058332520 8.594069965014542
-7.774399881868725 23.856486997845543 24.278595137413998
15.097573498448622 -18.986554256167224 9.610741022950849
-8.637156069302973 -3.290358927208763 8.847127195088385
-9.990159550370089 9.925219741136535 2.129454429222105
17.289546746705348 -15.072107638229635 21.151476086534498
-5.600416513176137 21.639310230551782 23.341957210348756
8.474514042065630 10.051130196802234 60.253068593757575
-9.757301299758270 14.381424736746091 43.327488086322838
-9.708969247041150 11.771427581015526 20.573014356294202
1.040416103580920 -14.916006515233292 48.540631671312703
-10.928879253044240 15.859619479746707 12.056689476210511
11.721681324206045 -0.548778474042253 0.000205766816746
1.884090539009062 12.968586207961634 27.799160215726232
-12.082108205137562 20.266413362633415 24.429198863823892
21.117102541763050 -15.496343159822267 5.571139368876368
12.718580273359755 -0.209386923903793 15.563086232462965
13.378170357473152 1.569992305502088 0.000134930623132
19.003488849902613 -5.182168906195795 11.569758879697511
11.371458099847027 -2.480064727720701 -9.026562500000008
19.111497633186325 -6.320801314196602 14.695922575536738
-10.029670852976656 20.329393089889635 5.725138891758895
-1.712196665551018 13.350542367586320 49.442004153414302
14.071141808709767 6.999124009936335 0.000109720425718
21.199266262928422 -10.582662548716243 16.388633675062422
-8.984141709270530 -8.463423705473890 55.676049710390203
3.229216194122604 -9.832982632168898 -1.966113281250002
4.795992540545865 -3.835831431962424 47.812433399208686
-9.744869463844054 23.617430085013606 22.827039858475686
0.075099385116880 13.274628837009772 6.186484999771736
-4.332279771168356 -14.860223445174274 25.872981971912207
17.572175721344546 -3.242260962004216 8.791490591566927
17.439371385294692 -13.821049479343802 22.615210061694366
13.703926852290031 -19.373049326251746 9.674803039889195
7.671927756948199 -13.012684677070300 34.883338494313868
-1.433581243280244 15.438511395904889 3.133641478762066
5.291612723709262 -8.442560779821257 55.103257058812957
-8.841721188559001 6.077187258379104 19.695447287057032
6.951754297998511 5.862455185084849 24.425935126968277
16.615608048464896 -9.612478048106707 24.646815532540852
-9.436975103534428 -7.838426398615234 42.791524066832508
19.743302542928557 10.768529371479833 -4.618457031250006
13.808932039039405 -1.043712428974986 14.329877803758272
-9.996701226063223 10.080632848460120 34.157975308444335
21.805462501219502 -10.100480257248218 14.657767140021958
-0.120909323246940 13.001995023947625 11.138028345057640
13.972365415848454 -14.281514905918351 26.140968962715871
-11.509390868260020 16.963189471086551 10.317382048258528
-10.203913087317220 14.110047863461192 33.895407688862818
-7.181412480710721 -12.044888358026226 11.684664312264196
4.000775422763221 -3.016900749050579 63.845549062507587
13.575443399206188 3.705245109224963 0.000134930623132
7.424163472615733 4.852805669257519 27.754268763315984
2.662217145133087 -8.044948812771315 59.039006093757578
9.197172858714344 -19.592434950253583 17.379996832916898
-10.953024672921060 10.969803094250208 7.049974779998986
5.430062445182767 -5.116889457002151 45.977620039668267
-10.948381497643187 -4.651824343582840 51.875034097612762
-0.711320029271034 -13.049907280646298 6.130475691360572
-9.841148155715825 0.761059399199720 33.569883490610366
0.510857874935669 -18.198750730224557 22.191091738840825
-1.239378753535596 -5.691920357076015 0.000368146434761
8.805320581388125 -9.848459583293531 40.480363715895770
2.470125639439657 -19.165851420461991 14.944052923781364
-10.949961822112765 14.808265787966985 3.696925230954053
15.632896079475929 -9.809010954831644 26.395771561615373
5.533027242268081 7.121690608474805 66.528947500007590
20.655278175502936 -9.442163197549203 16.835248650334769
-6.881640884852866 -9.813631402429239 37.806484290225185
-6.709932644075143 -6.100874135435226 4.572786844430109
-1.680743915142602 -12.455047188343922 55.362929388691825
-1.502040280140142 18.134043504442808 27.963908750166045
-9.172627947453975 -9.351522238058550 44.104234010117224
5.362043541226439 7.355932855241945 8.972655746637443
21.117965935249263 7.208488131136704 -5.427539062500006
9.189603076382468 2.341565344977502 27.087209874423046
-3.947870127729166 -13.480151229939461 30.258791773588179
-2.778921332733578 -8.872794411921655 59.592912343757575
-8.180623493412789 19.841238909373796 13.478660423746645
-10.679938584211307 7.484716086745215 41.093402801600597
24.325620621771375 -10.564872141769644 5.194203940018667
15.776855969826840 -1.827802063725602 9.288520061999298
-3.743468598576687 -0.939212327553240 64.792814687507587
-8.261491561995522 24.479368070202323 33.532212911158780
4.549321501363254 -4.997604704900033 61.537052968757578
-2.507081591488300 -4.247188014811639 0.000424141921581
-7.603657020377910 -11.501178793849649 27.706536219666749
18.250588805893152 2.940375421456787 -10.521289062500010
17.938376216401473 -5.599162042925220 15.945360575412284
-9.421617321686279 19.538518550513725 3.071273292687053
6.378047647657916 -19.001219930343730 7.679932615340152
3.819288203701688 9.281725544429984 33.659527126498766
13.446698075302089 -3.461204255605950 24.817466507473796
9.561780969521214 -16.878864640937998 25.572976705399437
-3.787031049840220 17.107461917325761 13.198632177517977
-10.940777089969938 -10.596109376478083 21.683504597424701
2.351974575786457 10.325255508737346 14.818054529766375
9.062032791540837 -5.548648725645878 0.000083651576213
-5.860293788075337 21.162431798373476 21.690648881178721
-2.871058051661893 16.175144105562687 13.709978964525948
-10.116638508716683 6.486450430587784 37.041881675150691
-3.413496259020280 -11.072715576539478 0.000205766816746
-9.426110700745394 -0.660938641194555 57.406681875007571
5.108195367648486 10.915012706945111 57.313615468757568
2.043903261530633 6.573325623149626 46.922441934588754
-4.126989037058995 -14.774582878374465 13.179736431190564
5.550261206120703 -7.442856130257755 49.416612134770610
-10.517851391609275 -7.269973618884086 47.197820074547607
-10.814696115763198 6.089886132828835 42.591203733741253
20.415907702600592 -13.081545591824854 17.968443426136744
-9.753981382246543 4.943222198405834 6.868524925019806
-3.016982172244565 -13.310825337330945 33.840910527084176
-6.582139717041946 -13.936439803612975 49.525862778936769
0.470395016658323 14.702540297409071 38.210647118885042
9.426886491660506 -0.273712765094039 32.786511842898243
-9.926014064538172 -8.536285565600254 45.985026536834283
11.829574263860358 -3.296110586541319 0.000056693334136
-0.272744687379240 10.453991724984157 58.635588125007573
6.372534286572248 6.554502000821282 8.377328674321866
-7.700329894248638 6.870162681918270 16.296950559375198
-8.790603083704834 20.372228449253868 4.403477838083456
-5.912777957277911 4.949595729177223 60.956388906257580
7.979808798535760 -1.152062126731041 62.594767812507584
-2.763627215426674 6.265109754929849 64.092521718757581
4.909506412832217 -6.132334810526228 59.710392812507578
-10.943674528426950 -4.022498242896939 44.801506128297831
-1.468975888865646 15.158914644673972 18.237095911261218
-3.050149832613744 -4.850753450655718 0.007023942768741
-10.193431809761897 8.189886900899822 37.569389319550865
-10.542434670548054 11.666457649098998 40.663360453859383
-0.086931230217363 14.081806421437561 21.194852781913095
-10.382321060160816 0.134336168011625 54.361221055858522
6.564488754465590 7.054217939226733 5.235288475948393
-10.703230850300304 -0.621360925364666 53.447872572684830
-1.754505019289459 -6.421475725749332 0.005723397683609
-10.533615699908530 -2.538116041877966 41.258033249794764
-11.345290302941882 16.450786149555793 27.328331966836107
-2.309026666602564 19.374009242972758 28.041460589463991
-7.784120820112264 1.484550390602223 60.315568593757575
-5.619472541958170 -14.838242253600660 16.575754288497809
-9.435842698122642 20.872108452668638 19.240899211886930
-2.352900002184347 -15.810025579645966 47.515979095558052
11.003183529100438 5.874236889674261 57.154240468757571
1.483961899393456 -6.465569761897179 0.000310589715351
-1.050472068879990 -11.105547590935403 -3.927246093750004
-10.620045755055932 -16.854202433296290 -2.102441406250003
-10.157862974334273 -6.337258217322926 28.161780922607456
-8.535902223336606 -12.549465788333409 24.169965136278758
-9.404499334457910 -4.064021546209569 38.011504746885862
-17.327198097738048 -4.211166172264708 0.000330081098348
19.001400241639644 2.070905538781736 -5.649121093750006
-2.543324744721708 -10.847833715426392 4.886993660050150
16.255750022599180 -15.786318822249262 21.722782714522250
-8.489717935190621 9.340174496016312 49.421689813744550
12.954444454100825 -12.242621473072418 28.613934617210237
-7.354806983195578 -10.221435494785148 40.120974193577617
9.474912506924392 2.909759361706896 18.255991056416295
-10.644554376242990 16.901913085726626 13.505183958306628
11.885164952814870 3.552542933243168 59.545256093757573
-10.254158380520265 -2.417663534725512 55.514561284226573
1.831289111997836 -9.641579523761141 0.006414604428280
0.016026084674782 15.982218474812841 36.970596272946658
-2.512039399404020 16.860865959179375 20.076824451695803
-3.242305155519828 -2.276282316798151 64.398576406257590
4.368954117769277 5.576915859511222 51.230701463054565
-10.719284826498356 20.978455934805105 33.780566588470542
-0.913220429391738 -17.461711083518566 13.395338318056631
6.878412132879812 10.426170362303298 58.002092031257575
1.111100291231096 -14.785747838984781 31.040776778011686
-7.768904254957993 -10.259428974989014 28.909228017491593
-1.429005967375889 -17.810360868712735 16.415370895842933
-9.217542812603698 5.352941796196161 52.888549278927897
-4.111876450238421 -15.262696108471724 43.593932262602493
-9.581019542279655 3.866514021495363 6.124263164479506
-7.266538696653642 -10.822519990306944 55.541408529638694
5.558884209744773 -4.023026916255427 61.846525625007580
-6.094046739981351 -14.180455640819419 15.337567869154251
-10.000353846727759 0.662239434490042 55.288908310383022
-9.647200549074530 -0.894771303482060 35.388842793678393
2.176124659791058 -19.077847733928568 19.080022314641838
-2.658794379085331 -9.410302238460465 3.259908753976628
-3.432119845833562 -12.551688703555216 55.330335346741421
-0.919901269020947 -14.108600864377419 33.702809710931490
-10.238602315322881 1.647214126256780 38.329304841864356
-8.041589246262435 -5.617999165085202 6.797659804434367
-10.700333602121516 9.219877722240827 6.277085574014821
13.913668258083973 0.225151316447177 7.864375114693270
11.153166258655830 -8.595723709956347 35.874079599253292
21.106060783893263 -5.219430853128238 3.179541898784303
-4.432474170924936 -3.143769445043595 63.441642812507581
7.204609041182798 4.399266070382509 66.253263906257587
-9.634146630842993 19.844607727224670 18.301325910510176
5.761095867498761 -6.781716461357488 46.647486901955155
-9.469355550097093 -2.125086826207282 33.803568470037455
-4.789746651417299 -11.957053881048619 34.724411597050413
-0.667968826826854 -5.592533400718776 62.668888906257578
2.998355599363672 10.492283278157869 34.861076572968436
-1.266443881106068 -14.512989032613415 30.444365153784698
-8.867769742294717 8.156741700782975 50.054310343022010
12.895012502065081 16.226154501210218 -3.122558593750004
-6.045503428526562 -12.956030155254471 27.762204164594866
-8.820593102142638 8.486585668748436 19.528125481408253
-7.719306363974053 1.848163064586292 14.749349026260838
-7.829773102105393 0.997006864701382 13.835283615234459
-10.818132884638812 14.102304717881015 28.731873330865746
-3.388299466145528 8.872094131966126 58.542131093757575
19.156909912847276 -10.505135430564943 20.671715033944356
-5.638003165528052 -8.500866004266303 5.159082270310242
-10.157732819766174 4.884500201024244 50.223749799481219
-4.144792736918196 17.158233737237378 45.693823251903943
12.765624320994560 4.583354723921203 0.000227918793173
-6.851152014145609 -9.755745167898867 32.664338791968476
-7.256512188835525 -8.726013132557521 36.428448364492397
-8.851667819833914 -8.213904773622589 41.367677324359562
0.762095157813323 13.712838913604484 38.950009201240263
-11.002364396289565 11.541874253970169 28.290702455540586
-2.727675009789978 -16.945880392406259 16.251102272606346
1.870352886820070 10.764693876873814 39.181998620286059
6.492415013987683 -16.682020154450630 27.140261147921475
-8.595816791384609 -11.684790778177550 47.307109593599819
-11.150189726194334 -8.849549063390105 24.412875596502939
-8.414187768261511 24.109554202708551 36.572588594298722
-11.023098954963675 24.439089467438375 25.939626408166564
10.043651188848061 2.569640978001846 13.304508445581355
3.009269446306774 8.125644906289985 38.896368660031797
-9.578180716782805 12.608850257681032 13.448354824082056
0.744895354678250 -17.390132217499964 10.418760321622214
-11.226560816974409 3.361582756229527 28.531146400297903
-10.580298421711646 -7.432871441488921 14.166124993218057
9.051918368662658 -5.017646941223860 39.502063513137209
5.334359960225691 -5.654391879086056 47.550821060740489
7.304307324745698 -14.214341913452483 31.296295147326216
-1.584543489511104 11.994244011767242 52.289572979343866
3.657712097662298 -8.284259454695286 57.872013906257571
3.936757864312865 6.763915278450147 37.866249588234645
1.162960823604114 -10.799058162942343 -2.334082031250002
-11.353089649977294 12.502301890202052 26.838678845293014
-7.508633021701172 20.440102344348514 6.765527425311729
19.384043565934284 -7.413033456093819 16.613929709142180
-7.503959508049372 22.169032418562050 21.385937220731783
5.293248374899970 3.772772302475699 37.741449861006657
1.246666498046915 -10.643695501196003 56.489431160750229
-5.668667571591077 23.723914968805737 32.976191583411278
14.811072431412924 -9.943895178091189 27.602412113604188
-11.066066546862139 12.989202875234710 27.930122082722786
15.823518415919516 -2.229353236865995 10.881293840990669
-0.758046849455347 1.925858844695927 66.702580312507592
14.813109726026877 10.606886283758179 -0.127050781250001
-10.144763887273784 16.990291919909392 16.350434677658392
13.692537706541307 -1.454208890016621 -8.646972656250005
-8.319957572318781 20.143119424850902 11.495737586562432
10.110136738343108 3.111383603096631 63.596037343757587
10.901105700710973 7.109137772824521 57.984709218757573
14.381699416896389 -1.097453798678797 11.506835136327883
-4.577056738199395 -0.216771216849747 0.000582356316984
-6.056397423128071 19.714790862100791 6.580145769704422
-11.263691399433220 -0.171797980570697 49.289786109322769
7.637732676372907 -19.856074366814401 15.471344396557830
-8.831906313279296 2.915081272755823 56.570024975890632
4.187505352716987 -16.755970293357205 27.234649145322393
5.738175782494542 2.380196600987535 38.270004394290730
21.120639045143410 4.611124767470489 -9.230859375000009
-7.414178149608322 3.834861446381941 0.000540238418327
-10.955270777184012 16.217957811301570 21.679931988697213
5.657915913528646 -0.236976584360470 51.498900837563482
-7.971997612571054 -12.788989561440550 15.035715848890307
20.725812241248949 9.980908535199521 -6.088378906250005
-4.460470967334871 -12.914062169729375 37.928546556381065
-2.812758860546808 20.771181725344842 34.072591676869706
9.438586026364694 -2.095669741288096 55.980755119763828
-7.827925381175683 -1.015946198509757 3.313938482612127
12.040720886046474 -4.843349091348687 -5.189355468750003
-1.212573298265338 -12.783054251448689 -0.199023437500001
-3.360611618702860 -13.495895686326575 31.148334162928549
10.333124502661491 -19.861947034834646 11.755191604800954
-5.219714403084787 9.334840163708400 54.645904825570099
-0.706893738127489 15.420678384204397 23.150740399113168
17.750989229790751 -4.722840400515806 13.812492803574964
23.148625863737401 -12.854578712656195 8.753295981491164
7.514246793507429 -16.967060975556414 26.330983641353548
-6.561925758587738 -14.381868123090161 17.665033683392419
0.965288731557061 10.640909449646568 44.165840738642750
-10.631326509553087 4.540340837104165 48.309858481714599
-6.595821840094370 15.660136418229817 46.143074211182480
15.735814971653729 -2.965276714045272 14.573844781614332
-3.067808722766935 20.811977064135217 39.600875918831377
21.402452555107015 6.083889307179342 -10.925097656250010
-3.579371341490488 19.195251462198325 23.095881259568436
-5.605294472163656 -3.126417883162141 62.580705312507575
15.207930241305489 0.354997830814385 3.326268102186176
-7.675055537132648 2.919154286181985 15.689237959938469
-8.351910758443116 0.500800935808325 3.493261160057392
18.968462624081742 -8.026100376722672 18.648226184151110
-8.671750544380815 10.878236546220805 14.860048719617570
3.914989064717299 -6.217915122008231 0.000290694068267
3.470611971943173 9.089625725674402 14.821871954798858
-1.657295674771839 -17.791992012448176 17.994957627032633
-11.343662177731682 11.030810091249142 27.215273783572389
9.907835798228639 -18.092912343431877 22.660468111612300
0.867109775197306 13.203418672772505 22.615210061694366
-5.421792074815566 8.453622752038157 55.853617975355185
-12.351051297269352 -0.074731658530895 26.105088303164969
-4.460784872641458 -1.902055078707520 63.997306875007581
-1.410370845153117 -10.487158048457674 0.000182914414852
-2.439608282130087 -5.286595281648914 0.000368146434761
6.184645662853717 3.529139400713514 35.825283243935196
-10.506280810632839 8.010866098155283 5.667593526853893
-7.217102381011273 -8.905366882763355 7.556600525095777
5.905732943702147 6.891859174214574 28.664678902683924
-10.055877010872829 -11.828459662981210 19.669446492561779
7.245334327211204 -5.484623675688181 56.601090815236837
4.431444568253417 -16.154003853841953 3.790064240015612
-0.261960477249358 14.177617158252403 44.293972080036966
-8.564388660368586 23.542218590017164 38.115037965156553
6.687676637049668 -7.715756971223925 44.739912040884455
-9.364238727981681 -10.363548424552969 47.912241213185439
-9.219317431381466 7.062868777132596 20.338328512864067
11.631638651875926 2.681079145305121 58.175822500007570
-2.131126843512043 -4.665303584758796 0.001035852175076
-1.437815366843257 -13.305537240651853 54.073585518448226
-11.356617136599263 4.779386661483237 23.304494699159843
11.631897058802917 -19.672987760545453 13.664441498236643
-3.802212319980717 21.877303864568798 37.816882797290987
9.388406760541550 -10.639386537565086 38.001141429912195
-1.489892197994041 18.507325462274096 29.153408480396674
14.321378215611485 -7.842318129537809 27.788614098288917
-10.322487480442273 17.460985891345899 14.596729941932111
0.957392470217257 -14.602238834558372 36.423100777714211
-0.946296007780829 -9.438781384376437 -5.830761718750006
-11.793928518918561 19.696522775232200 27.195868580058914
6.657601612348486 -4.494814765618311 42.828603355849793
-11.566748632886826 23.709127980013506 27.129110578799569
6.567358476736300 6.170848307300718 27.462093729134224
6.297449419868219 -5.659050571110011 0.000205766816746
-0.989139272172607 17.101519261801659 40.776019625873126
-6.732843556759845 22.678133529063100 23.307902374539058
-3.300468275973261 19.854528478357427 25.557534827996406
-10.590113899303994 15.709651285699277 38.006323317561026
7.739517392481285 -19.625437623766899 17.718179996085436
2.804462260166099 -11.265149319591275 54.504653187905575
-3.661481411107786 11.288864149715433 52.782127105730439
-11.283527285022755 -1.472094427152371 49.841898316168795
1.445901445380777 13.438381031218343 26.712695759807488
-9.385751461488409 24.645142190539076 29.663707571669324
-7.908871578552518 -14.829594599781622 -4.367773437500004
-13.813400249756395 -14.654978846317912 -0.494824218750001
23.353980344744492 -12.001599947521305 10.079319303922441
0.129004420292472 -6.598407307576625 0.000561007124429
1.168979268314540 11.514361392768189 13.119292442698139
19.138313183976315 -12.978115075023910 20.411775940149727
-6.347076475896870 22.839140232911472 24.370381597599653
14.292078167812607 -2.217260705945820 17.687813135218157
7.766019952693403 4.713760847660851 13.493816032884400
16.202911376040653 -1.263365543433420 -4.033300781250004
1.747742110341188 8.434781135403748 47.789988104106627
-11.278715599208203 23.939016121177531 24.769304671895913
21.870908179908866 -14.496827929254016 10.212620952627427
3.464172939373795 8.050598638263596 37.592884224735130
-10.657398741634518 17.742887283732774 37.136766769014649
20.321778013434312 -14.364776810268809 16.617746997149364
10.422969379588565 1.474734499164770 61.795060781257583
-1.377946762690877 -17.922740549224937 19.199776247584584
13.225303105386395 -4.153886410705140 -4.857324218750005
-7.771765689261309 -9.215519225198772 30.593151824478277
-10.029240609319446 15.395782037491811 15.131219560336650
-6.655147499378389 20.775641643217853 19.769679240293570
18.246938031309629 4.169644562690312 -12.400781250000012
17.741905963066689 -7.764257320737515 20.824874497633747
14.679387664709298 -18.957208357917452 14.268930118336861
17.104056894553811 -0.073500106339455 -6.351953125000005
3.292416387081766 9.526035469889043 51.965597960354401
2.561903255099242 12.053869462457612 30.088310133843297
21.120374052598891 -8.951373075657045 15.371965613291104
5.075116195737064 -2.418720916590283 43.808457745152076
-3.087642156190947 -13.336329714334680 32.816231431219194
6.653860564816739 -17.531724502515971 25.386820600554397
-10.969792213188837 1.589358563075828 42.234651987425551
5.337030498432966 9.352245893703905 54.318327308072611
-8.738512799175270 -5.649686293090975 33.017519530530990
0.691224937649377 13.061094167497400 2.615705165016410
-5.072736969250825 -3.791233154071028 0.872562296415946
-9.927625526744619 9.446810556165577 9.896256726290142
-9.839110399004934 -9.474890836424102 49.452163505426512
21.687739706602930 -14.687864706295274 4.187848028677774
-10.307988015819777 21.001411017043022 37.912978658034504
-10.430490862075199 10.468049368753634 42.912631165005394
-0.743282312269500 16.334000731979703 41.549403748022854
6.146016672063269 6.731962787940480 53.470108061611882
-10.616658764305502 9.912193632240704 22.947959091050006
9.941799942393057 -3.424827333395299 36.273100095533430
-6.328056410092104 -9.956543954142354 7.523372341282581
-3.332106612050654 -6.601244350606182 61.514494375007580
16.353656389085490 -0.067156301244035 -7.913769531250008
0.308710987376427 -9.684009744320864 -4.890625000000004
-9.340864802237103 -8.928708532797765 54.070751336685518
7.766766667788272 -0.932315229453681 53.656933276493504
-9.729606692573080 4.895922754602312 51.869713043327252
23.033921170647947 -11.643745348074605 11.318453289548692
0.273198749965890 -15.047944777112297 7.666570170813894
-7.985018333876494 18.792244772126480 43.206541745735038
6.165340606730699 0.527713977291192 65.408244375007598
-11.997114854858001 -3.157723122418543 20.937620767057599
-10.308927370738136 9.006425146015513 3.267255229447846
-3.981985928239218 3.005641213185680 64.867717031257584
18.914163919317897 -4.062537727543195 7.589873492532701
-8.639000301860939 -5.313658553084085 8.312270524533298
-8.154835333010213 7.970926361641595 13.694798118612452
12.657855278966233 -19.572611721687565 10.633097359550289
-8.205570530803572 -10.873272103411001 43.537203318236777
-11.706475710568286 17.320186302084757 25.012206281996821
21.587898882682342 9.056539315891403 -8.983496093750007
-12.536937337289666 -2.851247144255565 24.314696439933670
-4.413105409090918 22.638356588808588 36.883325488925685
-3.668602433311035 -14.138419986475574 28.753358474786150
3.264721729575054 -4.933261948240466 62.345060781257587
-1.729466206652476 15.595071247570580 4.550444764046158
6.843635437406254 10.588452041728335 59.568205312507573
7.516975815354627 -4.900971908852608 -8.119433593750008
13.791230133171545 -3.399666792589572 -5.793847656250007
0.757866110728996 -18.188027227281943 12.554432174296519
-11.646689325403315 6.747608182289968 24.672659503069177
-8.950847200916506 -10.977018400808204 26.146941354565396
-11.589486774865017 -6.753014884389725 25.374344402512541
-10.744383599533286 -3.440695881018482 43.107778794861261
-7.842727363311269 22.056036869504979 40.771014859504454
-10.331841543215992 -11.500797655746450 20.821233237140142
10.886713014651340 2.014048035644671 11.744050669586398
-10.465115197903669 15.674061375102999 36.082158006670340
1.527974471376672 8.388722134358538 46.227072108696021
15.863911395755098 -16.765929158179539 20.356699440964828
7.431356073055509 5.560110923297269 9.035597486515389
19.615783767334115 -9.753923013428848 19.356671227853592
2.189225816932046 11.599143492133834 23.222591580010505
-10.008435096054935 19.775338703373702 12.086537329956549
17.311696028452182 13.225532285081206 -3.819433593750004
-11.969344421390762 22.397332903696373 24.291729202910961
1.904674060995748 10.307646595582957 50.272619019471797
0.848985197455767 12.491876207350439 41.185720439484754
-9.454866632468503 10.824730689891304 46.064040023753037
-9.005966727479304 1.830035841439048 7.180503591095336
-8.892637262185392 20.474244352931436 9.717569403476944
4.051950585577527 -19.009544876823085 21.013849232832737
-8.518126974096287 15.837827351865897 44.451657860409370
-10.973151738107140 20.115252225135922 31.515139632749054
-10.752028510487715 -0.637259023924707 41.295421524197735
11.690625160996818 -19.739611572606197 11.844386286914570
10.278243195163503 9.186482368670072 61.290470937507578
-3.808406571865934 -1.680346159218683 0.000604341141119
-6.992002871153687 -3.167567337408296 0.000386876835537
5.380685428003657 -11.231773055290567 47.103495080862714
-6.166621369459152 -15.692649141401439 -0.384960937500001
-9.444380746465324 -3.765053456123346 31.972036768586218
7.029589096395189 -19.771071599313331 16.629198578480544
2.875917638299120 10.844446705356560 60.413420156257573
1.935828729360232 3.503961495624881 67.350138906257598
-4.817018483909028 -12.855354521499699 -4.435644531250006
8.445248791907272 1.343372291249899 64.255217031257587
-10.423628973171466 -3.359637392660642 28.932584514169999
6.103893413348785 6.951439140352853 24.216110092657761
-10.553654758480326 16.898357245841130 19.721437954094242
-11.444357365472198 -4.827081184872966 26.795857581452250
-8.989729735904319 9.862759337589550 47.842366948085569
-10.626188442487759 10.015562766505754 4.024217207584508
1.910609611247323 -17.420757913460690 25.452186295240640
-10.613019325706993 19.410721563191551 37.459609420854981
11.890056622851292 15.952895753706734 -2.239843750000002
10.709070159185618 1.612202930531496 18.119873939262487
-9.504959553766774 -4.433982570954405 31.072457171933959
-0.854897883764356 -16.605892914504309 25.646916048530770
-9.875458460652961 3.044723083373630 33.998408628984912
10.201592268921457 8.905720449923754 62.935197500007575
22.667042607560902 -13.469499249167452 3.508375872674781
-9.727578937118645 -12.067897575904080 18.700906203593064
18.968046383874928 -17.241507285936194 8.033177710774989
-3.916392830650996 20.587889431035624 42.313936757146600
-1.527717188152434 17.699696793256937 42.697566464700472
0.273915999466490 13.658888702968031 42.137981362668192
-5.172854957141347 21.401971661775125 42.004049366211859
2.819901525293718 -10.943695821932502 0.318261640010280
-1.666786096633410 -0.320506418466118 65.717717031257592
-6.232943387992626 4.236512524448304 0.000868267517094
4.318832174609259 -9.267725602578412 55.511579910663762
-5.561581222562309 19.893085575179661 43.487868020997546
-0.491998892697356 -16.622936734645442 10.841062343616599
-3.386641941332381 10.842063719093405 53.858931621073282
12.957441229267566 -13.730065486767609 27.586307939303371
13.328393553989233 -19.000830374506705 16.652100451240315
-2.800615398309859 -15.227511256814532 49.757644019509826
15.562717306369125 -8.507468858173928 25.918449674879909
2.616258561259466 4.926072314887550 47.909744987709161
1.949480026105701 -16.762436139056284 26.872840420878887
9.229371625218722 3.200521905141113 16.968710850211675
-0.991256051369268 15.349487038025531 44.969051465601773
-7.444832210876885 4.149760548373843 58.782560781257573
9.528612061127236 -6.640745049133986 -3.041699218750003
-10.508922627710394 24.827896167168671 26.861462673265031
-10.185809858980141 13.422263075056842 20.995710563344097
-10.770757691295392 0.796009696807872 52.187540765316108
-10.938995357548711 -1.776354052176490 52.692325345897082
-10.134865430429764 11.500579078665726 21.740623889145741
7.840406959147662 -15.565523597159489 28.477163522461932
-10.704789038384760 19.566333733153616 35.262433702603047
6.666911222190989 6.020750070242330 10.389772343449934
-2.937373610224732 20.805356949883322 38.342188805156702
5.798078722793907 2.022027718833004 52.053692166891985
9.061102589966595 4.532235299988607 7.543303866203662
10.282463098840028 -19.849713728272249 14.200387032381766
14.911034245130642 -2.612106676070005 -2.881250000000003
12.407231723035132 -4.634155219098528 29.556429346281167
-9.624750757747766 -4.984597036683729 39.866346606397741
-9.397857622635795 13.481877247989418 17.737155911499396
11.631298882480294 -19.048600198363896 18.357967264890746
-9.883687913787126 14.008662893510804 13.888475820213793
21.474266241351469 -15.311935796376590 9.046099157934098
1.272419362140917 10.828625336817007 58.959416250007571
16.503425150297929 15.402148714131313 -6.055371093750006
0.216132437152300 14.787894437251641 39.626193782183890
10.611352611458324 -3.163799543851100 33.995551994397054
19.751697206661017 3.425064214826248 -4.761718750000004
-7.897610517571250 -3.518670598773910 60.385392812507575
-1.535820349246697 6.438969560781752 65.076310781257590
21.915228741429399 -13.909556277812609 11.937422319238246
-1.924857386962028 -17.624700772249000 20.638835502355608
-9.611794576600584 7.900687575130489 9.678365127561207
6.515316583032456 3.378980748218306 53.017232280763693
-4.057101903547335 17.480031292059191 10.444139613547856
17.188208526075133 -16.304424221656856 19.349207485201134
-7.564524914126616 -5.213911705003121 5.535120415419870
-10.221146278298834 3.144012923200628 38.034815522457663
20.073365468184676 -9.365778532273698 18.119873939262487
0.219950409677493 13.005818793829818 17.805447305483749
12.305437453041815 -0.263371936331656 19.225947955010557
11.836556413189562 -7.688524289454999 34.172184018940577
19.052693197475907 -16.781787395798350 4.755836131297655
-12.643732627280297 -2.531005489015735 0.000368146434761
14.288643121608024 3.200659144263594 0.000083651576213
6.910350201651761 -0.494045676782135 52.896748918278618
-9.825300289613955 7.063991148730081 8.528539904256579
8.212713063587692 2.015029432737549 54.258380024230306
-10.279490781484299 -1.378419581986398 39.413285149180325
2.892157826462190 11.459733423658694 28.151597109186625
-10.128316451089130 8.006999281176649 46.429766392704849
-3.462205052457405 -16.149499777637658 15.551618203380290
10.469186039129536 7.087261865651151 64.020060781257584
3.454771784339652 -18.737169854273830 22.014371734365255
-8.426794689997164 24.513618026564409 32.379219833663711
1.273922066445194 10.995558840040681 49.658211010298608
-9.700507197372145 -8.562838084332842 11.825794279541368
18.773351393835647 -16.564803633480579 15.448409954508293
-10.298446101822327 14.101566701635504 12.693443765192317
-8.523125276324285 -15.081590864424328 0.000109720425718
-10.164959876085023 -8.548418362946734 26.620362560917833
9.872523902049263 -8.713474918240413 38.858029297691225
-0.236772710781537 14.949197553952420 42.343660727918540
7.997844133315283 -19.286528079120036 7.837465622185011
6.117970411828185 -8.901281111695384 46.320983289269577
-10.529917312220610 -5.231669009233146 43.835575803788913
