ply
format ascii 1.0
element vertex 839
property double x
property double y
property double z
end_header
3.860066125304806 -13.142867153199045 3.585394320566675
4.113308062649448 -12.091735524181288 3.354889914334400
3.186599346751545 -10.974421982101864 3.303997081989115
4.417878308180796 -11.120982420651995 3.099923720540178
2.030771294106441 -10.792900494755196 3.573099521130167
2.260054601395747 -9.772244401562928 3.266195406788979
1.132075053578122 -8.700936746732136 3.101938719190210
2.278708774492669 -8.993348247544743 2.824957790116444
4.617427957656393 -10.317832379722384 2.788327535163907
5.678284760862300 -11.341055096628700 2.919446393952948
-0.014255348466731 -8.413167069788454 3.421464846690490
-0.058905926231749 -7.570758497775791 2.915586424218022
2.460098035825965 -8.321466418520753 2.436329559208789
3.587174609243760 -9.346689748132562 2.627990150573434
-1.289435266757496 -6.404347116828415 2.630684138286613
-0.045091318146401 -6.788256444648964 2.364538080729604
-1.170045401994986 -13.973633567549687 5.237825160896810
-1.750736764847513 -15.032167148413700 5.589189065458983
-1.867981855457338 -13.402137716627376 5.480386521434938
-1.863873114375742 -16.522100687556925 5.744305651441215
-2.466847639931969 -16.001123257618030 6.029557759404102
-1.222880344601718 -8.313721378377029 3.752704813421067
2.989850821917220 10.991737435702678 55.074376800933209
1.670526116632513 11.130262209929620 54.333751800933207
1.606218612402140 10.859151894654310 55.769103363433210
1.791229913105118 11.165297373343996 52.808947113433206
0.397365665314905 11.098916006840360 53.511193207183211
0.390872792622935 10.543228186744770 56.270079925933210
1.686596832645551 10.618878108094085 57.052111175933213
2.702101570621174 10.468816571691635 57.934435394683220
-1.036114076668358 10.286923447820953 55.941368988433211
-0.901096724207888 9.821429210490590 57.157579925933213
-0.957623365192424 10.739611655490410 54.208751800933207
-2.249699700409298 10.018953673273540 55.097130707183211
-1.355194881779937 9.109658526980930 58.219884613433216
-0.864364738436007 11.020343625435459 52.708947113433204
-0.668398470426928 11.211755984305952 51.345570971281248
-2.078090950632114 10.872146880007518 51.835704925933200
-3.572850563088428 9.921611922536202 53.938634613433209
-3.560958033634212 9.241176868646551 55.596740082183210
0.766296038456308 11.250145743275592 51.057943417664248
-0.395215704744409 11.436402037654773 50.684150417622988
-0.125252969556342 11.607808568975829 49.958489757251527
-1.515908257570178 11.665503950943263 50.290841928146122
1.888097818520892 11.096352689912745 51.418394669962581
2.145843936199773 10.929866882439134 50.744473211372181
2.297296178433524 10.667626527735075 50.027907349306602
2.302362251705386 10.243035436090331 49.287932987773061
1.159349761805017 11.075397700392941 49.627032326814103
3.248042183548838 9.145445401853959 49.009286200861510
2.156617853429768 9.691066044546265 48.555035439030476
1.857301684718393 9.051129593199144 47.785602662366429
1.099060966669457 10.313169647845079 48.062120224258138
4.311877301201232 8.656461867400676 49.477932482985082
3.989801544277566 7.867134800020008 48.791563904726672
0.058512265076376 11.589226760312231 49.202724598064904
0.121029886204377 11.409620390591011 48.395483764562940
-1.056779826373643 12.149704696126561 48.772765430001954
0.023068571365189 11.029565713772232 47.588900996966217
-0.241818784992302 10.481696076632321 46.746963866460760
-1.015162609474858 11.748510792188952 47.083113846831793
-2.187410817281858 12.800796914561582 48.324809183067387
-2.413046144547791 12.544619847314809 49.123181388386598
-2.065350231202076 12.843722458206420 47.467879219984042
-3.321579616268580 13.523404972861853 47.878237384143944
0.281654278762329 8.989134164703765 46.518710542010780
-0.698772785205276 9.807312186977981 45.939514643553053
-1.286400446730529 9.069358869759407 45.077502113870466
-1.707786439098040 10.607928292514924 45.323617709535526
1.401319766380553 8.320922136461133 47.065918362958783
0.790402507203891 7.515260649945892 46.316588973712840
-2.081444712211722 12.604095251603958 46.582158536486290
4.590304891182951 6.453408059809459 48.684754389673415
3.511254576263498 6.985784325350716 48.172858675519421
-3.266911480191793 10.941147044593860 51.246048516933996
-3.441603327180828 10.429735249093394 52.427111175933206
-4.753380925568120 9.653270458093857 52.926720550933204
-5.976673152005141 9.419814101258194 51.896349457183206
-6.019514674107943 8.744188176966116 53.344201019683204
-5.706334940522405 10.332443203762393 51.057943417664248
-7.012910072967700 9.339532514042640 51.230261317200117
-2.669890174732281 12.093576338472221 49.891642764305445
-2.938309926079348 11.583778063244168 50.584835168339978
-3.812163063368607 12.459930420267623 49.453937486376518
-4.965284424735551 12.977483746661129 49.055558879835004
-5.184729706860069 12.120959068884181 49.765821606079570
-4.895207970689265 13.723235268913694 48.231207480015115
-6.258853749926653 13.396291913657532 48.567735148887763
-6.556582947850516 11.493307179736135 49.999024995368529
-5.469211225817371 11.260820422857977 50.420434779969170
-4.378645201916867 11.064752435857439 50.850723026405191
2.480373915930046 7.625675821305055 47.588900996966217
-0.961459697722767 7.434373126792689 44.889516356063581
-2.001590915054737 8.252153405247650 44.248368866718067
-7.191184284326499 7.453570567272028 53.736779144683204
-6.105482245966201 7.864201037858311 54.863048675933207
-2.678064573327358 7.494340910956407 43.248074989955541
-2.901462910467112 9.143103625537753 43.450679140049544
-0.070393159502438 3.387854322679603 65.236974457183237
1.250903877570634 3.380708479031127 66.116564300933234
-1.347400391992291 2.852850713868597 64.624962738433226
-0.976843806376435 1.894146896163566 65.506798675933226
1.298358754515612 2.279155457098318 67.002306488433234
2.275408828136208 3.210596958405550 66.970763519683231
3.520051058559521 4.094738190169411 66.953185394683231
3.457452436204614 5.123949850030490 65.927697113433226
4.750949686095328 4.908750660018144 66.792736175933243
-3.154451239644861 5.566602275702594 60.973107269683226
-4.429513982379332 5.522161379349591 59.895275238433221
-4.209970777287563 4.124389383392594 61.189220550933229
-2.583890368652359 2.760343178689215 63.555724457183231
-2.861067904589388 8.267712337152652 58.267150238433217
3.403800373716286 4.636917787016531 47.396934329502187
2.335484319518335 5.306364993367646 46.771402041976586
3.003290487986886 6.169029347507089 47.454385699176669
1.580331120902184 4.466340590441489 46.083882925748128
1.164029870669004 5.989441531936851 46.220212068222395
1.893978568726670 2.925038829847964 45.972074487523344
0.772450276390610 3.665054770156601 45.345876700076786
0.115103599688103 6.741282658590049 45.593120864674503
6.050033450696819 -1.816525798389955 47.848512256298733
5.152987587273267 -2.973331111564394 47.196242798557378
2.867111558175596 -1.900194481165703 45.670115906328078
2.505344343274355 -0.251255758837867 45.746871122977765
2.233042544478842 1.354651521474583 45.859736350998546
1.371322761194474 0.517931203047612 45.043761852320301
0.373738288163686 -0.099015528364509 44.097469545503898
0.104936693897670 1.504397070475681 44.283082685283404
0.777828793332213 -1.842807056337619 43.906796645658602
-0.496693550951998 -0.818387645645202 43.128314671940117
-0.923080742835036 2.343361380394414 43.691356422603448
0.069142874334628 2.929855291261015 44.601274971563200
13.850364716325352 3.094709981641286 3.497780244685498
8.243410457512987 -7.040811987071372 -8.129003906250007
12.768467607081348 4.471500390709263 3.955733269602785
7.254927094250838 -8.177171794574674 -7.113574218750006
11.379621160725421 5.646626022324877 4.178127956009253
11.352984661397112 5.794659012852223 5.270677497442966
11.675156927561128 5.176118313767253 6.153423680975976
-2.280378347266264 -11.978217569612889 -5.563574218750006
-1.558781183202578 -9.541686780672945 -7.644921875000007
0.058390685595116 -8.916885870339369 -7.807031250000006
1.600880903813923 -8.354436878305597 -8.026171875000008
3.189232582766107 -7.746810162045665 -8.403417968750006
-13.462875067147227 17.170842671064158 8.116531316372274
-14.316032446147767 16.744024297520880 9.783948055757866
-20.016632049371342 16.144733263465064 19.848056902665974
-20.525050648839855 15.833313846962898 21.224127185798853
-12.278417794688075 -5.545576539428454 0.001137816144197
-11.449470257393545 -4.259340769652617 0.001607233744402
-12.250477307103726 -3.911062565260050 0.001261591003529
-10.380438543826870 -4.908496622422773 0.001863939216919
-9.889587571260710 -3.067137320587388 0.002092593647631
-12.035597152494880 -2.304773695758711 0.001292687061790
-13.023220563763951 -4.225320119921692 0.000771856716369
-10.744038053215039 -0.799262569214255 0.001863939216919
-11.778779931396590 -1.125976115799472 0.001137816144197
-9.071636122366501 -2.230021554889885 0.002943748072593
-10.222152286214301 -1.358054360607741 0.002630751178009
-13.472846583083253 -5.139999079763559 0.000235137311343
-13.687965861106365 -5.939181843172951 0.000412694689499
-9.650422225342329 -6.131478022063966 0.001928872043923
-14.855261554785749 -6.597276779687151 -1.429296875000002
-15.760435113087892 -7.581100962248802 -2.123730468750003
-14.024585584715586 -5.590694033438242 -0.787597656250002
-14.804334718738685 -5.281339861167829 -2.044042968750003
-16.335179322109632 -7.190330138479163 -3.241308593750003
-16.542191847950882 -8.449940617733896 -2.621679687500003
-17.504047527775327 -9.351383353205886 -3.598437500000004
-17.815104467227140 -8.202870876896540 -4.863378906250006
-16.998266722562132 -7.084796878561793 -4.650390625000005
-17.733081619013330 -7.218554131325950 -5.742480468750005
-12.311221537515660 16.282317453971277 6.809938449851410
-11.954797427258201 15.002887651673090 6.751731662666904
-9.539089548596484 19.421369481591949 14.938361581347916
-9.076948402207698 19.637640480496032 13.090818428902210
-13.801071038770317 23.313049426437228 30.437913492242640
-13.465406269391224 22.594237570135945 29.301768821680909
-12.656947006587457 21.237096550769603 29.364438995722502
-13.016508489030272 21.706752963493493 28.409227182832620
-11.952976491269750 20.179566067883851 29.899176678765638
-12.565656154099713 20.995614290918656 27.086410770479326
-13.424402622817581 22.304173390791494 27.042972818661433
-20.120105823383359 20.001648111871738 36.336950243816581
-20.153031203619452 18.155498808690954 36.199231693609619
-8.700553372275715 19.479386974623203 38.704796889719333
-3.513679213925771 -11.545907037248234 -6.527734375000005
-1.310873051713535 -4.801914551857080 0.782583553737319
-2.204635964718178 -3.775909789247670 0.632156187341393
-0.361203863523077 -5.634555085209440 0.884774948809576
-1.216507348051745 -5.023346014298869 1.145108307108846
-0.710378240867237 -5.641375645376326 1.644207670874415
-1.787567464717336 -4.893276851041084 1.529172937118359
-3.158761925664197 -2.723092650576419 0.469021977620358
-3.958735357071731 -1.620933993776718 0.303575722355130
-4.816227494215035 -0.650297880013175 0.525022594302785
-5.977429630393376 1.858001851446349 0.123579829118900
-6.314038575510346 1.254087804973386 0.015774660993748
-7.564576980108948 1.560787921085482 0.007174563749067
-7.218986295375559 -0.072926280700300 0.006115914892709
-7.895055900719347 -1.678848007749125 0.004046738701334
10.713047496673596 -10.346987262687962 1.242950416512413
10.615485364954885 -10.446601183950150 1.654905090476772
12.526766019873961 -10.051320118751311 1.261300131002701
7.566079909213896 -10.110639546310793 1.769701368613157
8.854840823330779 -10.593832126906518 2.057401023900298
7.440652126439230 -10.339974891757576 2.155944150931750
10.353978741505845 -10.663297603669459 2.028480619855753
10.166153561526166 -10.974454942705215 2.389713794617742
9.839147943016590 -11.651722858568720 2.650497654336398
7.245507529006799 -10.812339723001873 2.496530333266958
6.093455767837970 -10.054958059737050 2.272906331056051
4.919873255487294 -9.286678580338426 2.045954319555847
4.810066804272200 -9.699626868153553 2.434623938612517
1.373650913618796 -7.440141777398921 2.207523685039861
0.077604311826891 -6.432984320259467 1.892030870404104
-15.889966668640687 17.166265757129519 13.086791221881990
-13.843066304277649 22.910189009864869 24.799137134438428
-12.823788121257230 21.512619219630903 24.128382054955015
-15.055962967155887 16.257508029018929 11.832101664936102
-14.798184975712950 13.367009232447488 12.754276225591386
-15.630187773710334 12.787764565785373 14.254030331272823
-16.512521955885916 12.308983597331359 15.257095629714710
-17.487145531751530 11.433112984681848 16.532887898213794
-21.374252355448260 15.816355425812946 29.036542344535995
-21.330286849775188 16.316612390497681 30.365816522163666
-20.715298837013869 14.417121870875224 21.679302661142511
-21.344227485463346 14.304675799767651 24.895122482281046
-21.482765830088535 15.630745530119679 25.827921335176363
-5.309930713688190 18.486041063379183 8.389783294074807
-5.821356411002140 17.806900659354611 9.801647273535455
-3.745961397535114 15.253790082915231 9.958071589167703
-2.397681956143023 14.717951201866642 8.632752844649856
-0.819602607013019 13.874566835020158 7.710590618537783
1.129657305427924 12.915473172432161 6.551040957557494
-4.882633801405252 -10.833605863524548 -7.575878906250006
-13.909459779609278 22.890485742562667 26.141042900607744
-15.756670010795563 25.417582298104023 26.497790221555949
-14.783908315970672 24.190899467769068 25.250581326832886
-12.407551250048440 14.352974572692711 46.252382904292560
-12.751484153590713 12.970927213581094 46.691000577397091
-11.576144339943097 13.736651817435890 46.889704546996711
-12.987356534719245 11.501080711167301 47.114029454115638
-10.818140345408199 13.242391773828462 47.531846083449935
-10.347149658152283 14.489030331341450 47.038375682374053
-13.248879320054540 10.078645474193090 47.588900996966217
-12.262824284620475 11.009177173927682 47.835285780514624
-11.232155684980178 11.930600122920270 47.993381172425856
-10.042192825107589 12.725910587557074 48.140359635315662
-8.904489748466238 14.977534685541977 47.086551217297995
-9.769770206748383 15.598891907691184 46.508118104585918
-7.920293463099038 14.279060039625664 47.745760944993449
-4.034482319385500 14.301792593749727 45.501148580062363
-4.099649293590988 13.993416225058741 44.532569149449557
-10.289620231655404 19.569760204800108 34.725669989561837
-9.663543699656451 18.810471570183740 35.673781910249424
-9.690226622990435 18.040042140116558 34.562064860597474
-8.997106380145585 18.030449754400870 36.584236623049378
-8.373540472296185 17.225809687097087 37.515540242354916
-8.440482744835288 16.478430829652375 36.465271236551146
-9.062152671923842 16.575293393094665 34.412256474370807
-9.690970712748193 17.339445471138209 33.438286195105249
-8.293664945670510 18.026551387711745 38.353991298457927
-7.731523405062050 16.467120458248498 38.264851168718948
-8.089285780056397 18.708084982190808 39.439305836851943
-7.169426196789675 14.904396617870047 38.500784107938586
-7.931725059283025 14.915791938287418 36.336950243816581
-8.570826997487892 15.727279867487979 35.377378589238987
-11.991481063553953 20.338940045040363 23.179012847158070
-11.074220475019183 19.164414730813903 22.500351917359733
-10.567427509777659 19.058182780702932 19.884969297339815
-11.151126653873595 19.966845066194377 19.012908053123681
-19.707311761744627 11.596596464018011 19.365139347360731
-20.336372265133949 12.915153941508089 20.607942555200175
-10.285927616579349 18.058672448293137 32.580421240362554
-10.816831911979591 18.744270015905094 31.406808793220215
-5.292008046213552 12.807733450881038 41.479450942742261
-5.783285973949945 12.639886851315305 40.297003178166662
-4.774183444371958 13.220073831942640 42.527243113405106
-4.513754283314984 11.554911363893101 42.105788388723411
-19.673957724000477 10.045985657409206 37.704811069379005
-19.030231276502683 9.065155783788477 39.926281706968382
-19.258369642759433 7.946015395508641 39.128229281216854
-18.945505299706962 7.440719603787608 40.241146474073183
-19.571875800741100 8.411748450894859 38.005610373116752
-19.552580931628075 6.804130956251462 38.309437624314313
-18.935664069825791 5.850412915858017 40.562486908320636
-18.652053756602150 6.962478000099826 41.328678088784613
-19.873601829774682 8.898495498676407 36.848949304287117
-20.171237582349697 9.381513734654460 35.696896500631354
-20.068118421426782 7.754060546323816 35.982999627801995
-20.144586232992125 10.933577097638512 35.382017442884120
-20.346340922817202 9.802577940342022 34.496550019928222
-20.223063692119705 6.607128268553899 35.061389039176156
-20.021037857421266 6.120339403865856 36.263529953063482
-20.283202455310274 12.568470588394808 35.042768319835190
-17.270640293218872 6.973433132033404 44.039227698113351
-17.809634059837283 5.890442611539424 43.407086072150875
-17.262724920665644 5.362965003073464 44.390818182996171
-18.223893217507186 6.437450248878395 42.384567026257514
-18.216330646533610 4.817301501641859 42.717955981251365
-18.234688174878084 8.024826919647852 42.044015347207804
-17.305105281186204 3.738864723714871 44.776095711350820
-16.745126662335384 4.829857442034652 45.368116408222789
-18.548026741197340 3.736484617775137 41.953235038228655
-18.121263477616640 3.185615191012594 43.024177040095353
-18.906214160167064 4.247205746113075 40.894309614244747
-18.815835149848887 2.611652702552676 41.173149112142454
-17.976001355254581 1.521571439474183 43.299837788886578
-17.655838396019593 2.618695118771513 44.039227698113351
-16.180971285781990 5.920598990490955 45.950372881762618
-15.597703938869991 6.984895057805267 46.462158959315943
-14.938707734081810 6.466261120989085 47.322336139951943
-13.384422200716713 8.560306370740363 48.029419858102870
-13.503229002819984 7.085999429992931 48.520061993838837
-12.653882113064510 8.130837037081076 48.788432322063130
-14.273576440372569 5.978960522955563 48.172858675519421
-13.520175723081948 5.536369525424817 48.972170923816662
-11.841440892734603 7.742364452241791 49.462940106168730
-11.716409896772522 9.200210888983628 48.981457836538894
-5.923656424871354 -16.507896818679676 25.240968189329060
-7.397361057468641 -16.127219604970385 25.140050215500011
-8.954285237707698 -15.652172369600557 25.202518920359559
-10.378465175268476 -15.239335609544360 24.933527081075844
-12.500356748180947 -14.811413534042957 23.003106876535348
-12.917966074131117 -14.782390592901059 21.538322291871097
-10.819329263561571 -16.048841254747252 19.415592254333319
-9.531148542658494 -16.772443989971727 19.792719243326985
-7.842269535726841 -8.874390433882168 5.725135204602610
-8.061109561162725 -7.529268048918349 5.110910313000062
-6.757142976590473 -5.941489469646071 3.968990032480773
-5.386710175339398 -5.895707291639771 3.595476790369599
-2.513731359104251 -8.265036937556621 4.102156506004047
-1.043786952125004 -12.332137621962824 52.593908050933202
-2.355993743251749 -12.601835147588083 51.879650238433200
-4.269077737412200 -13.405102394824262 48.634251860829110
-4.567549995867615 -13.643424151234267 46.746963866460760
-6.084639270536019 -13.717410997032834 45.899658739271374
-4.808158563817909 -13.602625988175012 44.893288942620771
-2.120420509227574 -12.892592983118202 44.840425114433103
-1.097785030115392 -5.224964407496733 39.404345479717364
-0.635426606484877 -5.954052116468641 40.575294410600932
-0.166450744164611 -5.149607484180240 41.683782968668496
-6.570326981536847 -13.211093234442545 36.753213332767928
-7.375225714227796 -13.399124937964091 35.428392934060767
-5.059862400412590 -13.217496906967208 41.215240387581787
-7.307235031592972 -13.479535571586091 38.554073460302206
0.633054901127651 -4.189813861890551 30.505187287644439
-0.150554234024389 -3.205848464801177 31.497725120460931
1.563786896741054 -5.214263704066525 29.576490394774499
1.214354556208068 -3.635790437343350 29.224625491981339
-6.084291516765808 -14.781222224880331 28.525072883040309
-5.070340685805794 -14.375208144238083 29.600580603842971
-3.602470659050108 -14.305037717173752 28.993129918417004
-8.923186835684117 -13.530678817982894 35.572004939192141
-10.529029567558421 -13.638141591400862 32.865381749656144
-9.875637584860510 -13.900625995884827 31.550341892328131
-10.670962178653648 -14.006027512257862 30.437913492242640
-12.014292508387644 -13.734062659751251 29.966568047644415
-11.343099500140667 -14.056923416887436 28.877349080758002
-11.255178472992739 -14.460475209275323 27.477423078340816
-9.895240461714987 -14.689073083051445 27.931273116875456
-2.022715404936797 -12.073026893006883 31.918251169568780
2.417048320306078 -6.183222220171245 28.640905726612800
-8.641481436588686 -14.819691293409065 27.656061904195759
-1.542700826942716 -12.798386970665515 30.322549656015543
-0.916372508052666 -13.863223241271493 28.959362618148599
-4.101620406696229 -4.304777405173700 63.639220550933231
-3.512335889113066 -2.977470519793776 64.366661957183226
-4.498960870117201 -5.453007046222615 62.709728363433229
-4.408249325297454 -0.078576169419531 62.937658050933223
-5.567709421779956 -0.053943882706548 61.617247894683224
-5.992116054868459 1.314855999227905 60.809923675933227
-5.119919029178407 2.695500164801281 61.085900238433226
-3.908484883121061 2.794416966292497 62.227794769683229
-10.017917673424449 0.840568332688648 55.314708832183214
-10.569946451621572 -0.663203378837161 54.749083832183210
-5.641973207022634 4.991341565711081 59.033458832183214
-6.689712062120488 4.871128188835677 57.718615082183220
-4.551381959936273 6.407205076792811 58.791368988433220
-6.506017149789438 6.207260957228201 56.587560394683216
-7.400149420200630 5.174178852104269 56.343322113433210
-8.387627777321912 5.134854336143914 55.020079925933210
-10.132605504277056 2.150671318867631 54.304064300933206
-10.262843905245846 3.395141198554560 53.311486175933204
-10.998772845466938 1.901714863930391 52.888048675933206
-9.374341341960983 4.786666540576330 53.573400238433209
-10.241613225279904 4.537701912385877 52.158947113433200
-11.773688995783917 1.701167111534267 51.467566905131605
-11.662753593762053 0.435395004740943 52.435216644683202
-8.284245353148691 6.220179047686278 53.816564300933209
-10.253572930356750 5.796558312977504 51.303764047466515
-11.149069190584767 4.506535000363264 51.169557912559824
6.701451800220486 -12.324676720673791 3.040899031249505
7.019168384236115 -11.462695646940414 2.806131572909758
8.406322346459264 -11.598715840621917 2.705968830156155
9.543446806884031 -12.385587282072686 2.904989964885107
-2.589973970562317 -6.238342813283457 2.972885831595021
-2.504964493321681 -5.288219941596696 2.396457143485172
-4.807304999335345 8.386541057132501 55.647326019683213
-3.531684737520838 8.581378192500301 56.840099457183214
-4.042247948552935 7.318877336764079 58.255626800933214
-4.626372730642623 14.258860234452291 47.417230483332091
-2.636671619663777 11.500513845454412 44.734390596630305
-2.239511354424889 12.125111643027688 45.651805474812335
-3.057990497300486 13.424210554397852 46.044269756797718
-4.191485695677700 14.445250278607565 46.479846813894866
-8.030577032386276 9.484296068859972 50.725309950760717
-8.177074491236734 8.239136941890006 51.319458182619570
-7.778629413671632 10.616006771222599 50.171428371135846
-8.966384954067587 9.551200824584413 50.245473947469961
-0.599680589853638 5.894110305893208 44.745770958514044
-8.330836496557772 7.231185497919522 52.382872894683203
-5.996671186872574 7.118259562709524 56.052013519683214
-5.287073748857737 6.815605463136921 57.426818207183217
-0.230843929299065 4.475611653851878 44.760937496631300
-1.318297222634534 5.185190825748638 44.027565807893609
-1.970038857072094 3.973211354195144 43.008127542565873
-2.333798465003672 5.410116118596017 43.032198962139674
2.020674261342948 -2.806472953055109 44.881969612068843
1.144983661864789 -3.573753552304281 43.871645097629681
-1.309214676487875 -1.396973102125912 41.746127222887509
-1.807523608593937 0.307103883691324 42.064617435996055
-1.949758586947485 2.566431130347137 42.645036970257763
7.122260433906633 9.052316289881780 4.194454421393647
8.883905829734250 7.514109463470226 5.026659661642475
10.770476404787495 5.977291607273638 3.643936632379327
-14.093669472038821 15.286695010827621 10.361613799190780
-9.605119516245146 0.579491549884743 0.003049828711882
-11.624419892188318 -0.210794155918594 0.000923420043876
-12.409102481773235 -2.595498243053236 0.000294194649300
-10.512822946676049 1.701628301433108 0.001767116896311
-11.418752428256004 -0.142509910364787 0.000353377722098
-13.106192483177065 -3.219303097092551 -0.803613281250002
-13.171419736831449 -4.527178329206251 -0.101855468750001
-16.297888911294208 -6.182468616004088 -4.095019531250005
-15.437404344876734 -5.135912708899685 -3.460742187500004
-16.100301787649748 -5.030714777783835 -4.869628906250005
-14.607067659945923 -4.129306805395690 -2.818847656250003
-13.804763402480040 -3.030418468949408 -2.167089843750003
-14.437905096854541 -2.884933401938610 -3.583496093750004
-10.668757528077213 12.303787478985084 5.693294361784377
-11.210277953668140 13.533871269525388 6.156798535946956
-12.937592168330836 -1.974931312590792 -1.568554687500002
-9.889547556232902 9.844997669747034 4.855730594050211
-10.262270791077322 11.036290448816331 5.236335625136599
-7.796753957749813 18.768007624462939 11.893957314133456
-8.386956532998834 19.865867636709670 11.213757946073835
-11.675959517678915 19.502191406630043 27.405005673586476
-12.112902378589194 20.106386771752405 26.006129826585759
-3.144273794866595 -3.075928721059405 0.877102908284785
-3.031268080424030 -3.707457783913788 1.335549560723069
-4.003536064104797 -2.563216005993408 1.173188092798289
-6.319819858579985 1.664410350001272 0.703535811457129
-6.624033536591657 3.132157780077837 0.417966369949953
-21.314866263262765 13.010030699774637 23.865477177918692
-21.479621557411694 13.016523946592526 25.519876904044747
-11.552447495708375 10.558679366113793 48.481826808379793
-8.608006516270303 15.016080157708156 34.257545135208574
-8.004153618234648 13.513146638636341 34.013313872679475
-8.511814597302982 14.373168477708457 33.021869232532481
-9.566432580996681 16.641235939841913 32.394906567614640
-9.099579044881434 15.311890092499363 32.018460524614738
-9.565669031188895 16.079880019062308 31.129027459138893
-8.423301335809587 13.870154914555135 31.741554616294291
-7.694235958161522 12.337809738711517 31.435523655762964
-8.157791296697253 13.340244669917530 30.404270514863068
-7.274023316619640 11.374970087183565 32.532874680929027
-7.011476440344433 10.852442019682989 31.186529127972545
-7.943883014117895 12.906088155582696 29.070305419815448
-8.664429857598918 14.415045400817723 29.407821237515954
-7.353473487988244 14.101844251735573 37.330259948132074
-7.471527723208792 13.347316970627880 36.240572213425168
-5.460685961319008 11.004727938843855 40.034341372818204
-6.205298643073559 12.506244561395915 39.312464584778127
-4.399401000007475 13.538808004129619 43.545587978487944
-3.740631063120770 10.200543364592960 42.782647181095399
-4.337591044219264 9.763294411800885 41.725356614742282
-3.160750383036108 10.927244865826410 43.797304541450131
-3.572417219105947 12.493902704052070 44.140108473251487
-19.765711996728566 5.636776074101602 37.461364183121397
-19.560202578393984 5.173058700727640 38.642781603055262
-19.272604604411647 4.736013597363557 39.774601979679147
-19.416050913973493 3.554388953667555 38.934552853487993
-19.609307387892990 2.276855905684656 38.130896496581954
-19.264926317908628 1.839005741177346 39.299325794601280
-19.825791580090502 2.849365933642165 36.867170645737694
-19.675359876839316 1.131532467537514 37.207972473871457
-19.060334530926539 0.348106258221527 39.570199833174726
-19.025060103062451 1.640052090614645 40.374234593784649
-20.568266468291402 10.290824947750821 33.334305902627413
-20.495226570575802 8.737152771512754 33.617686825198383
-20.450512392849554 7.125134687921657 33.843922033520251
-20.408221551326008 5.501749667865962 34.102614149673201
-19.919887956196511 4.488372420094025 36.552225610632561
-20.088125003163324 3.346073314309235 35.632160171443282
-20.355859519232705 3.884830118635784 34.351336139569042
-20.261041848715831 2.244539980555348 34.646237347761129
-17.120209404553158 2.082477713541056 45.073755309174018
-16.185432666457086 4.301436718878962 46.345066869629079
-16.107433673333382 2.679642623424537 46.746963866460760
-15.598251615538144 3.789336664100839 47.298541449212564
-14.871444896359256 3.292102635774679 48.192329637011525
-14.953977976549067 4.900767252506815 47.775650164199661
-14.742280588551779 1.682861464346413 48.640573045006676
-14.158248517552586 2.817380372627721 49.077106620686038
-16.542146852488663 1.550382688442621 46.105461869210714
-15.947787901583721 1.032262802789388 47.131184630262254
-16.915933952264190 0.422090536418049 45.408839057655698
-17.143923010912054 -0.713347019094236 44.578391572887455
-16.545710286140476 -1.242263508958262 45.681095640093943
-16.136469654797949 -2.873890251293953 45.972074487523344
-15.961539983466409 -1.736067949146550 46.788840806346514
-17.708768376344452 -0.179141417608899 43.446718549480366
-17.352064513511255 -1.853884127033168 43.667763761167024
-15.636593072897691 -0.606821784836624 47.501572232162616
-15.217357617316996 0.534977061518198 48.098022291285147
-18.646583246663347 1.115967576307019 41.479450942742261
-18.350372999279664 -0.579935351579422 41.571319018654222
-18.191710733574183 0.396961361848300 42.372311790454219
-18.550848824542907 -1.553331804478759 40.193831954760512
-18.052646654649557 -2.280960701555421 41.126800677391046
-18.775298895582306 -1.338605810713836 39.071077342686351
-17.508932017513757 -3.953140876232220 41.227859641012174
-17.378755791931383 -2.975795635713720 42.632869291140125
-13.514926658518467 3.989149516234310 49.459939832402313
-12.772031745662151 5.123692592059533 49.757002181602502
-11.960212777430611 6.314538711476533 49.996133489007931
-11.035903858403239 7.413412937312307 50.145704004638290
-10.700097586347788 10.138614258690856 49.117045883589384
-9.844715338838455 9.800291806000125 49.665553055170292
-9.616393757828259 11.094532928272635 49.159944029385059
-8.544157620674946 11.779522337231985 49.184404466292648
-9.400506677131501 12.123657812137541 48.637412751719438
-8.906725644931244 13.334018334805176 48.150115571785705
-7.329295476510088 13.715648350960535 48.263540377058035
-7.314282625749555 12.634372344049567 49.012375243547751
-7.593379501667640 11.712626867355223 49.543720933273434
-4.687197276365819 -16.937518466442736 25.245774717298143
-5.375864980828450 -16.100516284925380 26.251895616070897
-3.117278165282007 -17.261707072975305 25.524687909147840
-4.382802379958209 -15.665594319054495 27.207081207114729
-5.672474890697221 -15.367716454924436 27.284316752331382
-3.001999613631532 -16.050387783085394 26.714846826521878
-3.296333359262981 -15.323384831091005 27.752626813462761
-2.044184933789826 -17.036197094484702 26.179597278981984
-2.234034397671792 -14.648586769443511 28.457497652325497
-8.708530172370191 -17.519925196537439 18.735066551537091
-3.723857018280774 -12.961257867442068 50.479183537752789
-5.358221227135083 -13.268347064014430 49.507872281296173
-3.639031200016489 -12.551576929653907 52.481310394683206
-5.349457979705814 -12.264131414847078 52.523204925933207
-6.806505540464532 -12.116114857273399 52.119884613433200
-6.353569780832465 -12.644952750320559 50.861571024140872
-7.473580952611506 -11.066325202027519 53.468224457183204
-8.235449204077177 -11.469302780885236 51.982189300933200
-6.952799398924323 -13.120059860529510 49.181349011322482
-6.702919888688642 -10.787365079364720 54.817736175933206
-8.009680384692047 -9.965536217442917 54.570665863433206
-9.565100379716382 -10.377371559376432 51.874767425933200
-9.399438012129616 -11.442671373895468 50.551562551988781
-10.726289612537601 -10.862505465116220 49.327334153845285
-9.441176947802459 -12.084519802871990 49.181349011322482
-9.910192905969943 -9.135535712262417 52.915099457183203
-10.610014650259087 -9.214306150547619 51.520079925933203
-9.064656606685942 -8.904043549866323 54.244591644683211
-10.120891371923170 -7.747867904854672 53.897033050933210
-11.645041323394663 -7.866099053721387 51.153673633066148
-11.739010718273857 -8.873289856143675 50.268176824765376
-12.637987495428096 -8.391068944104006 49.009286200861510
-11.710406034024718 -9.808741320120722 49.196620287112665
-7.412590983740317 -13.387336247827305 47.045264801775616
-7.655712442785529 -13.637910421037645 45.241836773067092
-9.210265646711694 -13.357185990745791 44.616520254301534
-7.849304810147902 -13.590948380937853 43.494213695118688
-8.539194815056963 -12.822633542322329 48.340896877777169
-4.926586712588643 -13.518207988370996 43.156297037666135
-3.487078823817826 -13.239091815295014 43.949705014805346
-0.595680540885259 -1.688820008784857 31.124234973839442
-1.041813076219150 -2.256186474520198 32.456769489749263
1.670593425769062 -3.179321966408093 27.873333944253208
0.745642081213184 -2.176663099139680 28.809801239506974
-11.231006085503280 -13.371673002171635 34.173064217931312
-12.027466399244853 -13.256522594347933 32.813180694473402
-10.511298944566381 -13.352355410531853 35.521072312463716
-12.009761297829490 -12.972798594995471 35.456206804491991
-9.722407473136288 -13.442717803791087 36.899047092148649
-12.779471856900225 -12.445218377197214 36.716709997967513
-13.423427273528800 -12.165537686305711 35.335618276395792
-12.162302775893348 -12.624130680167539 38.068284827508393
-13.548063966172974 -11.725243037282274 37.906996010000640
-14.709880489349379 -11.263174558180967 35.186983530370028
-14.058209921176180 -12.046617893767687 33.975692737517818
-14.691902408148383 -11.799500942764103 32.561404400585701
-13.416368897913850 -12.703639580197661 32.684970887703479
-14.229281383474071 -10.820935113239608 39.057879989337074
-14.724489771535307 -10.512712120103824 37.709310914223096
-13.572432647129810 -11.064038310718079 40.468456198315643
-14.761881006543778 -9.848182520940771 40.219645675504808
-15.799587003150393 -9.314891799195371 37.438777998155366
-15.209002947840467 -10.281743521063021 36.304837226886931
-15.780951069484100 -10.066898047664349 34.949610625888397
-16.736018937252592 -8.900551505240525 34.716328203448285
-16.243440173504101 -9.858098640442273 33.594096298229253
-12.758621378525167 -13.210604498299709 31.421166733602021
-13.391338259192404 -13.182283479203258 29.855846852441623
-16.255894350904548 -8.085429194458174 38.416311106399768
-16.774556221483426 -7.907373264254018 37.067304555085784
-15.814727030648479 -8.292895342380543 39.826658234844075
-16.747693276722320 -6.865930317842375 39.408716791701671
-3.161606326809653 -0.093270938364814 64.346935394683229
-3.493959942330963 1.334206869447324 63.452794769683223
-11.957632461785391 3.271526670321141 50.999081638623551
-12.614177572560315 1.997786914127665 50.717088457265774
-11.946382945854921 4.792433894812282 50.468013219050988
-12.121505586477184 -1.080464934478948 51.842052582183200
-11.349143956494995 -0.855184664102757 53.297618988433207
-9.282297754104613 6.993518401109771 51.348179222691513
-10.152075258555826 7.173739102033771 50.733526242631370
-10.029848019762424 8.561673552310310 50.225577920353274
-3.282809384276923 6.322102502953157 42.208521241077761
-0.640976054108374 -3.432498051502185 41.812520309137057
-1.767766126082431 -2.206905411394468 40.609430242534131
-2.750359452548047 2.011734010936529 41.328678088784613
5.097244552577457 10.088263721647031 5.641056247964482
6.266876097457939 9.157190349713202 5.753909459248884
-9.678855721735793 1.953432723382841 0.002943748072593
-9.039346332756837 3.637810773671680 0.003300875202741
-7.500321130113401 4.717910551815852 0.009454782888576
-8.029188284474090 5.321916761707440 0.004878628632937
-11.313066684338702 0.209843882049107 -0.397753906250001
-12.120994883181348 -0.883084645291337 -0.956738281250002
-10.182107974695695 2.692893589727625 0.000591529566819
-8.354716386251150 6.913969631576461 2.554198121334135
-12.819478751531978 -0.693884207545062 -2.320019531250002
-11.304732409990121 11.192539025740983 6.731812483438620
-11.567195716548634 10.039994180977329 7.553092601982826
-12.092077180980468 11.420771370891837 8.000079465218713
-11.238201317554967 8.721211295070006 7.178804340394011
-11.958631785493958 8.898529216519369 8.329876456947076
-12.837650557598167 11.531522914545732 9.391615876335063
-12.706520214886742 12.735663964410582 8.532311948842253
-12.485709589386403 14.069503041380072 7.760958388659844
-9.689302304708477 8.650508586485380 4.521893909079862
-10.594335457372729 8.597587939238524 5.912536549716727
-2.626457785900453 -4.558413379340702 1.859546908460470
-4.975387971229275 -2.170979485774178 1.503692324142486
-5.015383969262781 -1.332417164199472 0.993093238673356
-20.921874034883746 12.775139613761750 22.150493663953331
-21.157626270307322 11.503127161608703 22.760988440570088
-21.538374712924863 11.593165141112454 26.025400449186552
-21.461437406536721 12.903335881943029 27.023667691280714
-7.563836351569805 12.617680371969263 35.075352198211604
-7.510534478379425 11.961973185337056 33.834504138366846
-9.617350025540722 16.051520217565578 29.793250184623062
-10.207776406347488 17.313586820923170 30.202330788662969
-19.656093555391752 0.033886424559054 36.231387272070975
-19.332973298454998 -0.547870133592131 37.520052946715936
-20.583154345784408 4.406367010115540 33.107151499000366
-20.788987373604417 4.905370481043746 31.803656788931235
-20.738192901331601 3.294121755794642 32.032771433965578
-20.882504152158653 6.601437862235001 31.669872422263897
-21.091945225009745 5.495607204689426 30.596460877830765
-20.831414988014284 2.191122727848654 30.913264938710263
-20.624612464960343 1.683338844697240 32.242525916366077
-20.262832502783457 1.194228305418708 33.584658819411054
-19.989802611529175 0.641305797058977 34.898335751488545
-14.525388550712625 0.055056994983630 49.077106620686038
-13.430359310948836 2.403853033829677 49.929464574548490
-13.220437941500576 0.785878503416533 50.400794386564030
-16.245960128372008 -3.983146833152091 45.099971837114708
-15.533060450344600 -4.452459179905103 46.266666554683795
-15.206409943296656 -2.221703918650205 47.845206520256269
-14.784446377093365 -3.861515649144609 48.215018764989196
-14.487388823355786 -2.716614011955798 48.885232947114716
-14.873315728698770 -4.902422905483601 47.390164293399835
-14.116482680438555 -5.382319922104902 48.539147370563995
-13.686248954976159 -3.182637260847225 49.906201534801923
-14.167549254787824 -1.581795808605336 49.498896635028061
-14.926531278398992 -6.012870087115048 46.525769348125394
-14.899255502045007 -6.959875348864156 45.637147348447954
-14.173785765116504 -7.384703209054573 46.844549116627078
-13.404481985983221 -8.867362008522228 46.903579095995212
-13.460465039166184 -7.915888053705369 47.805491788191944
-13.356837038160489 -9.827006971842787 45.431024020931972
-12.545890110674705 -10.296325795274193 46.430285387617275
-15.322087315348934 -6.776850532154608 44.490500234224029
-14.591417407044135 -8.174295676080698 44.741978024220046
-13.844349453482534 -9.679911533023111 44.205885194675602
-11.609665656476141 -11.425329836569597 46.416104744743862
-11.780858152377187 -10.550632145551523 48.006494422296342
-13.473613987818966 -6.960286173378340 48.841587802406849
-13.331153731720033 -5.883811792011641 49.612189725695430
-16.794738667457608 -3.517984296000712 43.836453405627651
-17.256298714475236 -5.142136175936825 40.223946609316897
-16.609776967505212 -5.871873167819031 41.816666182883651
-9.924146927276857 -12.475950201114113 47.261092421347129
-10.789681718959423 -12.349748619120636 45.593120864674503
-11.566401835193401 -6.618827893585255 51.910509613433206
-12.444119822711633 -6.336670757193605 50.733526242631370
-10.860151608439645 -6.462359675497169 53.340392425933203
-11.583586928443387 -5.178515170332435 52.761876800933209
-10.107529040913549 -6.297154187816888 54.732091644683209
-13.169995234011385 -4.805327258849017 50.344520335510893
-11.014933065896198 -12.576944276056167 43.949705014805346
-7.934980990247939 -13.653256808723201 41.529586399277022
-6.392901392358411 -13.657169078207032 42.118131021667821
-10.644282330794617 -13.237933011429110 38.233621218880010
-11.518538026830155 -12.801071289238392 39.474242976584314
-11.002762534806516 -12.963907662487843 40.741464959299122
-12.447864644835908 -12.149325164100990 40.528316097809068
-15.880673707740559 -10.757057720342672 32.480556391777995
-15.361860849669931 -11.612155456816588 31.239225614037128
-16.043908930874654 -11.253362474550300 29.884733987232185
-14.859402152798978 -12.283786375356499 29.942501201009144
-13.127728797747597 -11.326635306083910 41.733666156693644
-15.255894407943723 -8.602590455275926 41.198408876414575
-14.619395060609412 -9.085614695115437 42.624755206378339
-15.687761872523831 -7.541986100001405 42.171569504896866
-15.944111673856447 -6.328715467448454 43.160292619207681
-16.213972015112248 -5.109344384042227 44.062537966643305
-17.098406768488058 -7.791295969910567 35.646036290498245
-17.580729466358267 -7.619917970888626 34.327896016077901
-16.850787098445203 -9.608602300719754 32.275871498575327
-17.723365879412832 -8.317869719850673 32.132914246416973
-17.366756823173333 -9.199080199698797 31.018774289120916
-17.542571364411568 -6.596819779541930 36.643649963213882
-17.816882358458351 -5.508552838370827 37.398103927802836
-18.179697385713268 -5.432889007447101 36.024449912458763
-12.898779589104409 -0.826819313198221 50.858859884546305
-12.548972917299844 -2.457973314037045 51.356000678453398
-13.715918688364003 -0.414528981815649 49.978771956849982
-11.050310585050248 -2.175664524733769 54.166564300933210
-11.343892147924757 -3.693040099896205 53.448595550933206
-12.050781998911836 -3.849766185556249 52.019103363433203
-12.917637915479181 -3.668748646991490 50.904871393700446
-8.578628335601506 1.531599679290158 0.004555594748203
-7.369086113493863 3.220650698014499 0.010111084466107
-6.803507540917122 4.352362439165127 0.044735762692192
-7.187584554916932 3.922002512402079 0.911397179663942
-7.294751462529312 6.379529171170730 1.111447344317012
-9.573031567331430 5.184220841345828 3.784051241126571
-9.550509191763995 6.331621732849314 4.000456163710551
-10.980520841267923 7.406173069063797 6.795350398816013
-10.863615640084200 6.110032537723347 6.438456768289629
-11.534187493856376 6.215537623623471 7.555070525066952
-10.268559077638731 6.141384418942875 5.240805210152542
-10.885802992495282 4.880753793657566 6.076196658495765
-9.493800369686952 7.480896520791870 4.256424959277711
-12.158779897547163 5.040703363518820 8.225836950508242
-12.176253095847244 6.389167825468995 8.654708332919521
-12.941213658643635 6.550593085233206 10.036733287448563
-12.446680986765266 7.764601087330449 9.092399386283747
-12.196105593854329 3.705491760300914 7.827834005990891
-12.931014333843423 3.868196634861256 8.811836827303482
-11.566192456181627 3.658542948006175 6.773513792257106
-12.423526225107304 2.502539481622250 7.374775696673530
-13.808240510444259 2.763521274728532 9.495924336921469
-13.682767792511239 4.103005610230846 10.166093718685474
-14.123313935141136 1.498740234138653 8.876646661187991
-14.844249359290595 1.725647729568446 10.213001752209889
-14.478237330523335 4.384469520372725 11.524923713682856
-13.627249753884419 5.481514759901242 10.802352021632842
-12.633026110240690 9.093165257113670 9.723887743380386
-13.283649071095038 9.099254252907707 11.063350362965423
-12.937268289568882 10.278882250955498 10.076175845084144
-13.361578377408510 11.535722643054623 10.861758251053404
-14.124144455423304 11.106825007808235 12.330793045927694
-13.956797168968400 12.352334232779812 11.774238407492946
-13.424826776324196 14.266023130885905 9.171025259179469
-14.086093935539635 13.778424508909774 11.251502187293521
-4.864012173531866 -3.158812531341512 1.939562095357974
-5.906303722185666 -1.920041290060584 1.804048606016061
-5.686641586249176 0.069481935172460 0.828493585211425
-21.531554483466014 10.392261390216939 25.010353776937091
-21.501742475228653 10.248544966821486 26.541195229988340
-19.713798528517319 -1.044039262941413 35.191631966333382
-18.751032445021551 -2.450844791856781 38.108542417645850
-20.678185623162978 7.628390644001047 32.651713028280597
-20.921261510870245 8.199570667477884 31.464234429261065
-20.927552655726469 9.864499187133561 31.253595134996633
-21.131627117870096 8.838837634542939 30.264850597405374
-20.792179180071706 10.635312498626259 32.199643038079444
-20.998353998608533 11.262101835247940 31.023569024448943
-21.258939932784088 9.382812731865849 29.065482240533100
-21.323914843091352 7.734095756939926 29.268020050582191
-21.283878431777524 6.118845777229147 29.441560183054850
-21.181308443369964 4.436527677586361 29.552398801693428
-21.099164522249595 2.610004391510294 29.446379829125107
-20.990120847288470 1.011602359805910 29.634304535416014
-20.355522075953690 0.086460773085997 32.471042068648131
-20.391984577969811 -0.778522001856254 31.416380866410861
-20.121440650254836 -1.305014204553689 32.803687551602259
-20.726367153641018 -0.729041466220853 30.077253484924807
-20.364983804496259 -2.087677773550029 30.370623553207437
-19.664652888037139 -2.956210111060979 32.827419233707687
-19.729187662477834 -2.117334854711739 33.905119892064036
-17.083762681734850 -10.070456158135386 29.875105200810133
-16.650287337525160 -10.844564465594457 28.611948835859284
-18.198623719536954 -6.412317981624926 34.022717218619242
-17.846273680253628 -7.493755260878919 33.078730003195417
-18.420327276633511 -7.162480790073785 31.865737820865970
-18.003716662043068 -8.833519719996259 29.769171727802973
-18.671933023435628 -7.565990262544251 29.764355851618451
-18.394074253754791 -8.424035743899676 28.621601234614790
-18.946466407259443 -6.433068792768792 30.716509509818664
-19.409653015856648 -6.081604302246029 29.600580603842971
-18.967776100832481 -7.809784105253172 27.414661169815748
-18.265246797822563 -9.043714098028726 27.395350229349539
-17.685450277088474 -4.948908811959717 38.877201121794315
-18.318762840976703 -3.802535164000576 38.251468860326241
-18.854742102560650 -4.070743207874269 35.363460609230216
-18.585569106443124 -5.141068837278835 34.590130001250529
-13.754268109549496 6.832995127595135 11.433460374688931
-14.699851992421317 7.247565162313235 12.862063543522584
-13.944099758908269 8.305536119423039 12.193565103250096
-10.995139958916942 3.685131313626230 5.720350327535969
-12.705685009721098 1.318848702444221 6.962727805785101
-13.365662189544217 1.374021408307589 7.909493300372686
-14.351902848816279 0.251482367594035 8.439241517893070
-14.657430642093425 -0.921984332486894 7.964985473841927
-15.342179806416109 -0.862601392225307 8.892345465878739
-15.919978846584730 0.750829084586922 11.067099402379759
-15.692196267438936 2.090529002129902 11.681912936523016
-15.260005720985040 3.429891485207737 11.932687512057324
-15.206943172894446 4.814189779152738 12.575455867461184
-14.246825397632739 9.516666126863152 12.523990294147730
-14.799917786802480 10.328913753801727 13.430858766492877
-20.639515231717823 11.692148471513907 33.092941495218994
-20.576972951032527 12.836106409230304 33.749709292954506
-20.799164148090206 13.173838214669649 32.637457383208030
-21.034301890253964 13.208552116115165 30.999594343817883
-21.166044310718320 12.431055406119057 30.053194567925228
-21.366670754136358 10.978830229232695 28.814626293546844
-21.495429963099291 9.881071262328600 27.796081359325271
-21.403116946408794 6.680814458570168 28.216128150849006
-21.584633118820307 7.231045430537090 27.057451921416551
-21.487498641362880 5.626184121809108 27.211908290768019
-21.498776600379465 8.668215681580236 26.792040230341833
