ply
format ascii 1.0
element vertex 841
property double x
property double y
property double z
end_header
-20.650008629084990 -4.451033568242095 23.024331025005218
14.921865617781359 24.140638782304745 5.138423008910009
-17.641893177289308 -4.122162566717855 4.701166482217894
3.230392052449020 20.507699727380515 49.052989625941777
-19.751214261093331 -4.497402888695735 52.790600288690115
-11.360112246456382 7.783484933114256 78.658437407049590
-3.852753673396810 8.516208791453225 -3.121777343750004
5.084774451168514 20.428274856058799 0.355469223166036
-18.061066231823894 -2.534426350265194 39.467797216532091
1.626528048206010 19.390800709478874 50.839149611742599
-18.762710342464388 -3.437455751170443 46.667321307966802
-13.531849337869168 3.865907806371122 80.597530422714868
-18.721648808008769 -3.339417333638887 34.152937909805750
-2.394496594088902 10.380373513387203 -3.113281250000004
6.174064921743277 21.410723815797176 45.754097408464396
16.706564581228218 23.133320647950139 15.315888763110932
-20.107939710173678 -5.229218765583900 58.606916780371662
15.880719184846541 23.682137507013021 6.953135854835076
-2.003974775972739 16.281939179638975 53.528686274393991
-0.717944461312836 12.599757468300371 -2.982714843750004
-7.826950727404992 2.381104539340194 -2.337109375000002
-20.530486191380078 -4.883059241041695 21.234246493971927
-16.460424726545746 0.343894547637129 76.476842738878958
-10.916123855083288 8.505598625802911 72.956425065345371
9.872751518243641 22.365414060607588 1.721260516393445
-3.117483949357894 15.067293338784106 54.583954488604569
-20.543933977376184 -5.095753969381455 18.925784262954416
-19.135888145193892 -4.881648990470239 8.673360668532050
-8.848095764845203 9.967087696535343 62.727518513378300
-4.731630090598706 6.326819996118551 -3.113574218750003
0.012799939394358 17.648643920760378 52.507601593816872
-10.875414993824846 6.352268995500220 81.945414033003175
-9.147670098473153 9.481949534542991 80.047768608544388
-19.924153114835104 -5.706433626100714 59.995393753566475
-13.808416512350375 -6.759038287429811 -0.737695312500002
-18.147775858339369 -3.660312020631457 45.004269113020577
-17.816809083860502 -2.200124408396278 73.973299114470620
-7.008830687644884 11.093545901137245 59.633628475112069
-9.619340774775909 9.224401428185322 69.408045707321989
-9.355941184838581 9.281748665203796 76.049962159209713
-14.668271903343921 0.547256018174470 80.212695650483269
-12.333364707389338 2.623991281156848 83.016370167810464
-8.041424891554966 9.001966451249453 82.365565777691415
-8.483007117432782 9.679988233574973 65.612221437624115
2.395969062166635 15.193873042128153 -2.384960937500003
-8.952694224222531 9.284928560278280 72.735503230877413
-19.359998515599841 -5.933536437137484 66.758005631498378
-16.249546607125957 -1.556219739762745 77.355584126300300
-5.006324076522040 4.182463282248144 -3.041796875000003
-6.882935908846608 11.168897337024577 78.197717597349467
-18.582107881257713 -5.065254733305124 71.251533602917405
-6.067067055107460 11.405851155634517 80.896563677492423
17.693839444994971 21.904178464182042 20.041251552345233
-2.925194127780558 13.598139920460477 56.579769835085884
17.268941806626199 21.662464960740113 10.626890047144409
-17.863722956094279 -5.247440265304293 48.178690160565026
-18.737944111584451 -6.586047223081771 55.862394285872945
17.423183587464951 21.591386718953995 22.628295189683570
16.646455692493149 21.591479359254564 27.686565636761639
-19.441901004317465 -6.533570852788824 13.544125417833731
-19.050633831331819 -7.022765023172725 61.354977472456426
-17.100258440116203 -4.598041285444965 43.504093278522369
-5.332063097217477 12.365885302787946 78.783309470872936
-12.948934978444745 -0.047861030273454 83.132385792810467
8.434812367460594 19.930704130343273 0.766631786995174
-9.740734292149003 4.044672841562495 84.367737355310467
-18.906747326413356 -7.240944885587321 63.559793039029174
-17.473436431386389 -4.730675796819021 74.363901073160818
15.056601950398800 21.184985224889648 34.563687668147871
-5.828838303609124 10.407102639067684 61.921559533864681
-5.106436973669199 10.940767019390060 60.513203085328513
14.565432680949307 21.651638971425015 3.328774251073079
6.047367566487819 19.354766456419391 48.720237105543021
-4.896220991773492 11.092724440944131 82.442786535655443
-19.145446203119299 -6.792599497559094 22.808380134434543
-11.608943938951233 -7.208195056905287 -1.307031250000002
-7.064913249136152 9.708075011481748 69.574453815498572
3.855822295282470 18.072361435389780 51.193392709623303
-0.049789805172040 9.256958624894327 -3.175195312500004
-3.881596237484250 11.914114221006066 59.218990290443585
17.765179301072717 20.718733299155080 15.537634915542643
16.038504178501078 20.851391284460906 31.113817001097367
13.931976020457842 20.629916636299253 36.872069828128645
-5.611613617730180 9.508870965861414 83.093616261560470
-18.395568776566908 -7.348906294544673 58.602540670422457
7.353513696429297 18.912990186766791 0.331558922247660
17.529588673553096 20.534684812740192 13.040006216486127
-6.912060744419260 9.768178423170751 71.453622374601338
-4.833725161499528 12.250417102239656 77.533730289922616
17.289513695223224 21.286242650374916 7.244619609748555
10.834905958948386 20.328519375785461 1.381207141459204
-16.248559515589758 -3.926790580805282 76.773895316768687
-16.190629008057254 -7.158106204703127 4.145961356103874
-16.805857537520307 -5.292159256635758 36.957213567810854
-18.074637346593974 -6.386255417772393 30.399268215331702
-5.746607822294629 11.024653725923070 76.020643649988330
-0.236363220999536 14.875284523281584 55.589285883947312
-17.098966702820270 -5.670372900715635 35.112994442172621
-6.520077063398302 10.040198686648690 73.916196345896793
-12.838737922018836 -9.500640000418668 -0.629394531250001
-3.883050382653703 12.930310882063315 79.073390058808130
-17.743082394307855 -6.933813942153302 53.281245452062592
-16.520910471464692 -5.159955103916654 38.652271412951819
-19.051571927573104 -7.179098757617957 21.089680119474814
-16.434277932791758 -5.102339154975497 41.424589020617873
-9.803590291497455 -5.270494138307993 -1.688281250000002
-18.409776387297132 -6.794178368194316 28.037564041360348
-18.486083493982633 -7.340888478152883 10.660395060500802
-19.105027420597136 -7.402666440342621 16.669454434940199
-18.679916936977047 -7.038953864098990 25.460145463117389
10.793122108980629 19.677060363444703 41.814165022968801
-18.144161159571393 -6.919352525316787 69.845676768188596
5.675410601185982 17.007851754753450 -0.778515625000001
17.724001555898575 20.160980058656076 17.660264362183540
17.418711515547333 20.462799128290683 8.895756986498800
2.507773853365651 12.064787098950355 -2.907421875000003
-7.662490764604324 -2.556807853003878 -2.059667968750003
16.641734750805213 21.051666699925914 5.352041474548295
-14.743376671061139 -3.001681727451866 79.522216368516780
-6.110131694108032 9.774914711083397 67.536115708171167
-6.908409618513959 6.349454349765622 84.044983449060467
-4.485556337850801 1.787992152179454 -2.983007812500004
-17.336439915569361 -7.402914014901850 7.275840879150166
-5.530176711410959 9.987265534817107 64.485596009626789
-13.343830853554390 -2.179207538915539 82.159123851019558
-1.853683507816540 5.487586083551474 -3.368750000000004
3.733117189008547 13.568225905557821 -2.717187500000003
-17.348055717268249 -6.414383749336411 32.798711299185833
-16.577275731245766 -5.993260853850209 46.137417875173171
-8.950753970780969 2.850229217991026 84.990686574060476
-3.259704277968399 3.256115570911176 -3.326562500000004
-12.250258286481559 -1.434582305473400 83.616174855310476
-17.059037089134879 -6.776905204340950 50.187953627551408
2.334348247495854 16.220574209113959 53.594954106201278
-18.825077212715179 -7.668795186122046 19.499106192538353
17.108843975133841 19.782132732448559 25.482318638194357
-10.506581447117611 0.600014433261596 84.438831105310470
-3.079301551384040 12.260522693734069 81.662388005331621
13.618254021093271 20.572374913025566 2.325641497960775
-18.129111750935529 -8.002460417359208 65.282853521514397
-16.079056366291084 -5.579474858114379 40.046778383160799
-3.946790910641731 10.899383027859578 61.445907320787377
-16.676171514964107 -6.512252012633278 47.734523555979806
-17.598784944078865 -7.833966129441841 55.426243315116864
8.308924846446306 19.022253006683389 46.854218586646837
-3.798748625871593 10.230048108073911 83.111877980310467
-7.722490320098522 3.942837821983324 84.869690480310467
-1.493616308001481 12.903597292602024 58.536892219819194
4.854087334765373 14.372212130024092 -2.287304687500002
-5.417698926537193 -0.666324083025226 -2.541503906250002
17.749111448828224 19.267377532136010 20.280767828875263
-17.049256965983751 -6.775455790622609 72.968031275670171
17.672517962803262 19.299641644951539 10.802999625180545
-17.413705963436534 -8.218935310400092 56.553380798605531
-16.181903207427641 -5.827516397918241 75.840705487431705
-16.464668637305454 -7.026920405698981 48.675860921481060
-17.631573957614194 -8.103590033679714 67.755591871620908
16.918502563736201 19.221694530287746 28.020265008718230
15.584150152859095 19.447600974033577 34.468123682858902
17.908246742109490 19.043531153246761 15.524319570621183
-3.883142786640782 10.452957997187813 63.036882734758649
-2.787297157756623 12.576964545577365 76.654561081850005
-4.663509901928443 10.011044524040575 70.023306027259338
17.678142527553447 19.361060536710458 7.299273107796625
-0.837310493287027 13.671508191314318 81.521930116736357
-17.299874772779148 -8.873628160443644 62.383148220360567
17.393610106052993 18.332799633446449 22.457116896978455
-0.863480087240421 14.187255469675810 79.327455078850875
-3.543067655328286 11.149724163503656 74.477171912712734
-4.057938697643812 10.414905867183608 72.529400719218856
10.013332247029675 18.038814855287477 0.611405085129566
-3.820560638365766 9.933729747465559 68.271297236550268
-14.316863128142703 -9.531837344094454 2.704356196885012
-1.874990431604032 10.420853637612211 83.034534230310470
-1.584625844674466 11.393518120976964 61.921559533864681
5.212170499275491 12.284984680423932 -2.624902343750003
2.932831696519401 14.734372262074787 55.174988051680309
17.793951158372515 17.452371045690391 14.186950259957674
-12.915241750424689 -4.770454272716103 81.164131238891088
17.398151281654709 17.254055094798733 20.570010933110311
-3.317345012361474 -0.211619926154485 -2.964453125000004
-17.118797238771077 -9.386792794658263 9.696607642549315
-7.357228343417159 1.595210117317855 85.002991261560481
0.826414220543636 14.692775040928105 81.124583355534782
0.426329621404134 13.759122486177873 81.994058836583292
-0.434714689744391 12.324056081644853 82.404189240020372
16.258445217053481 17.803038199695077 32.482484534966552
-2.509681668162216 10.384962686410542 64.489848967774719
-15.340389918976072 -7.850847561140926 47.867801438682399
7.623181917234716 17.026966209609277 49.434403850933428
16.898754448914101 17.321056277412495 26.954136792538065
1.231476912845765 15.352911352797666 80.142083200582562
17.720704883648281 17.463573478530140 10.043650435354589
-16.514003993421209 -9.423429706796142 65.667032581658489
0.658010489794385 12.887523830944458 59.319430152993284
16.818979010218634 18.875962035751346 3.828636545392062
17.702890889823799 16.857558678867520 16.321006124787772
-16.028968029925519 -9.681830667709715 6.945393249804554
0.579104150259738 14.523680718354580 77.866875797895830
2.001401393730287 6.584667391827246 -3.334277343750004
-2.859088813837481 7.572947525915801 83.842346730310467
-15.417051513818716 -8.725921205187090 51.454580469453035
-3.758207082421987 -1.772052110259922 -2.742187500000003
-10.863349550838281 -3.758479382584564 83.214417042810467
16.934081065816791 16.546742236826155 24.655078663945851
13.789521589259168 18.470219578024267 1.622166641904471
-9.582125208044650 -10.097501976648056 -1.540722656250002
-4.307728717153132 5.222504332800393 84.352502980310476
17.712130238441286 18.463399952048714 5.138423008910009
-15.988114691810274 -8.915564623018165 70.276955974362593
-13.775236496036440 -6.287282313902479 78.449577099441285
-5.345217059786213 3.440494592429288 84.705530324060476
-14.514568197649888 -7.605309066210084 43.638755222504386
-17.280396960117418 -9.690470567494826 20.886350742782227
-15.689361891507717 -9.444094665427761 55.271975231181635
-17.218399537811209 -9.936325828533255 13.487486659939552
17.763892200202864 16.605569088914987 11.908449201498410
12.475947863992138 16.972105588806020 41.624013008517515
7.204850493502312 13.766448282924090 -1.737500000000002
-1.031111956550419 1.583481514467184 -3.358496093750004
-2.279511434494669 10.188091793660265 69.277939192192932
-14.980495371549784 -8.656312562185516 49.594023036849450
10.448041500516975 16.993267244543382 45.914596821124071
8.621005965598965 15.723260800829337 -0.378320312500001
-14.687588017288055 -7.970141994920755 37.962264971720288
-1.629245592308928 11.133226083107337 73.234383266325807
-15.670670044641035 -9.818593291865044 57.203884981895087
-14.411941195605415 -7.766388025764013 39.535005925908635
-15.012744107711377 -8.331848635110036 36.196354833169721
5.582300265693039 15.203234319785919 52.887863839135520
-6.934829003223474 -7.096202842756090 -2.201171875000003
-14.266522270890713 -7.702786638777233 41.102301428944543
-16.610235336600660 -9.603745324244432 28.033239621552983
-15.418782573359792 -8.720103786947895 34.245461131987739
-16.188820174752916 -9.332046678239566 30.512024250245048
16.689453361871127 16.420375046644590 29.608358007991836
17.363568555090648 15.833694369705716 18.799471698506135
-14.664988689895310 -7.823197202526234 75.527094637930986
18.002570186265412 17.572229414650792 6.209596139992894
2.766480743029308 13.535548149122318 57.151175699999698
-1.758431063875264 10.200671527973721 67.033283547465473
-17.117680883659148 -10.074185481297976 19.431361837407859
-16.820839223657430 -9.863776954011971 25.477884304318305
-17.150335783541625 -10.164450900442937 17.669251836986124
-16.944087323354459 -9.973740567498465 23.037822172053975
-1.723310845335216 10.617229912768286 71.398203773230890
0.530799091453714 13.541313112130476 76.429587736602699
4.502386279368654 9.071730803432002 -2.934277343750004
-15.630815053025765 -10.116950697172186 59.432929947049516
-0.577637749960087 12.087243985956537 74.627848717930107
15.190517789869354 16.570675280889500 36.590009568354809
2.183605751608575 15.178740457718087 79.001038285808136
-15.582584906658401 -9.833025736817186 67.842421054988279
-4.369160008086384 -4.233364091799536 -2.587011718750003
16.955821306475229 15.182716375991287 21.618120007641725
16.175254949485893 18.065618734434747 2.590749955191164
-14.841463164388221 -9.630602158533366 53.153081745299211
-10.180398458067801 -12.595302107679085 -1.025390625000002
-15.528125746529035 -9.482261927982252 32.410126281987161
1.578104078314249 4.089608734443800 -3.484570312500004
-11.524560660998654 -5.833621317696887 81.766667336946824
17.996295003683144 16.255299346891483 8.247740743763499
16.391685938841519 15.976787568952865 32.418171654401775
3.042215657630110 15.170878193535625 80.714041417026408
-15.444205876000339 -10.448417311592616 63.880412004991321
-7.745941831674129 -1.862705138150849 84.722424855310479
2.220303114644488 13.410194496673016 82.036182026970437
2.032922348110989 14.505329486846305 77.241227201273858
16.723224359444220 15.153309853119326 26.831516071607805
-14.723338452964841 -9.088982132689166 73.068528968914180
-13.830000806320424 -8.766761791980358 46.279968009616908
-13.773129397381730 -11.184357450217338 3.786610417714342
13.293828320762840 17.060913402893728 1.018845502972223
-11.884639350400674 -6.654237014039571 80.600863233553810
0.166884615326578 10.793712958538372 64.702333479204611
4.798398879012476 13.694750307008441 55.457092467298956
-15.025715541710280 -10.803871129984758 61.800589583584305
18.140058671123342 16.860512571983953 4.977353320242037
17.690482126716425 14.642139551483501 14.200112901509797
17.877536909195900 15.050960117434684 10.201370189473709
11.398388247260499 16.057534501361541 0.352478768133362
1.647785172772204 11.717989193851853 62.033822785007857
17.433541921292253 14.266822328440416 16.539819035778240
-15.528103420254485 -11.299498608779800 8.899810224836028
-1.713970693155339 -2.139805383235541 -3.017773437500003
3.019362891380567 12.469243320189618 59.402376624856267
1.103950555242709 9.840354068823745 83.126135792810473
16.707958212791219 13.753556996987287 24.507829579780033
0.271732689400076 10.631468514939256 69.926465600199776
12.961231749577983 15.004254640977248 42.617964772592600
0.994071152533204 11.423784328939021 72.572230599799653
-2.416357279476669 3.582077212856201 84.341956105310473
7.862208462050902 10.728181209741519 -2.173828125000003
-13.074682267123299 -9.971872581748462 48.507210923179478
17.964102930329979 16.212522715344068 3.685324566622487
4.383809538743614 14.938288365383405 77.817404597949519
16.631117917992256 12.510295760644455 22.164113019118503
16.542530977452401 13.814766425636154 32.902300819890982
-13.950844923009292 -11.551627109914770 63.354256257994052
1.731509933881386 10.623856531669166 66.347993624383179
13.950665636909678 15.828462251124641 0.815588833983614
-13.784526072564478 -11.385383887756753 65.675462920851487
-4.179494443831564 -7.905211610211066 -2.740234375000002
-3.016973803271010 -6.274330966472455 -2.838281250000003
7.180135112380031 13.171793952154182 53.727475491499192
15.978685055571095 13.740538474922936 36.087105927245460
-12.658928509531203 -9.788934046600591 74.898050821569655
-13.998916649511395 -11.198962344301334 33.187889241647198
-10.877950165903366 -8.086148425742968 79.590361804321134
3.028865749286975 12.556431283692820 74.386573247043103
17.766165001294599 12.597126171006950 13.666235299693735
18.384542325204919 13.743662503679236 7.806397402678153
16.417101118401973 15.869050473997477 1.937029647907309
2.942281314854791 1.941671925009575 -3.400000000000004
-13.569932210101644 -11.844396128640934 62.072668159911416
-14.441138396854962 -12.578681747002122 8.016564181832594
-5.952265261082726 -3.320699651929658 84.926624074060470
5.215261692041997 13.955230474404972 81.449918346608769
-8.160266234052933 -13.931813495115660 -1.108300781250002
4.203293914542657 13.886762392672971 76.123185690853788
12.774025261837819 15.038542532668835 0.370428648010943
5.000796950879038 4.816779929546416 -3.179589843750004
-12.647953548069394 -10.819808798370563 50.923291767095861
16.839848791865965 11.863800315833378 20.136151338286311
-14.828511761780744 -12.619944170700336 9.688372009976494
-15.300686822582586 -12.280158004086051 23.374863182153497
-9.594312712314141 -7.283045658645065 81.551360146412947
10.691457186456379 13.081405013739328 -0.548632812500001
17.624165849025950 12.141334215214222 15.152044062360863
-13.282882350073931 -11.924783613475164 60.400158845949804
-13.209427083036676 -12.736457093526548 5.455692236124155
18.292586288353689 13.036568137035770 9.086628298958784
-15.278405975657332 -12.512021794789536 19.571373840920810
-13.128129789840596 -11.856833343399558 57.984959674150929
17.288112629981200 11.834733875868787 17.395289114456027
-12.969973603880916 -11.690374614215186 55.968079422892728
-3.708851772620021 -0.643837061696558 84.956506886560476
16.862330863471502 12.283246593591022 28.374163277508668
2.323689554296908 10.582340451106202 68.254837376704245
10.439934314713790 13.512387177429424 48.804545797577404
5.977649140123306 12.152144440304124 56.817207267167120
-12.280668441735452 -10.385061217953446 38.485743624121646
-14.132677716102942 -11.919035856391321 31.245753057972678
-11.708333786537779 -9.976070452084228 42.035762930131966
-11.864243311637773 -10.062152322538330 40.053022892084989
-12.810802548040432 -10.953920121606631 71.370478333492812
-13.242775617135113 -11.262268593365203 34.886729888115084
-12.731289407683159 -10.846009532801791 36.775978678730610
-12.574199933763078 -11.502460333054048 53.798145646051800
15.324059494660412 13.139596503903368 38.435562790652625
-14.926638361582404 -12.581735996057086 25.548815472944668
18.139235792493348 12.267122818967438 11.601660424334449
-15.109303671823517 -12.851045052979291 16.911096481955973
-15.030084281709922 -12.733907016754069 21.505238900568543
-1.295397704114423 -5.275014504307441 -2.990917968750003
18.816522168175855 13.869976945345929 5.854893937084968
6.188032149417365 14.814860910265532 79.736539249938417
-14.813362112750358 -13.014655441233218 12.853884332809152
4.800703485051656 11.494433390288759 60.539282828776642
0.123071993337630 -3.432510550355584 -3.114550781250003
0.899886476885145 5.534261105154544 83.793127980310473
-12.705545423012531 -11.577071373235579 68.718714557921047
2.517600125776292 7.864538227021877 83.437854542810470
-11.051419560467028 -9.405072220829570 77.244804913100410
9.773139543280211 10.471984439742027 -1.664746093750002
16.662503307962641 10.837422253281108 21.934062432804936
-6.985218652270707 -5.962255978556388 83.830432667810470
-5.391797780867750 -11.570959883406791 -2.400683593750002
-14.363609261921251 -12.667464363916052 28.546226192677828
3.142436406090250 11.009087887519140 70.621888909679626
-11.347963669342157 -10.432904760848105 44.557216412323704
-11.521137885961181 -10.745825661380765 46.867566003147715
6.446417198216130 15.040357881887472 78.222262869546057
-1.470668473333474 1.467871161728256 84.492151417810476
-12.065802159296490 -10.829555393628981 73.338298040656994
1.958660818958448 -1.366968679217055 -3.235839843750004
5.061819820830688 11.443976190672752 82.465289621489944
4.023790765514003 10.884279327624460 64.251489058017157
-11.654601626184846 -11.253027244453628 49.296934158634741
3.808226845572921 11.655729947708490 72.580014825395182
16.805136146633558 10.687301346816426 24.351511352999964
8.012263066451467 7.164871275031715 -2.564941406250002
-2.130979676773379 -7.561124810230771 -3.022656250000003
3.862350475526182 9.134825950114848 83.201135792810476
6.377496919511574 14.567370826880222 77.212596080972673
16.373227735851213 12.103390232703394 35.720158355755778
13.853384313209146 12.495318100213288 42.509772703846672
9.429288851578463 8.961724140332246 -2.038867187500002
17.984861372574986 10.949300840418481 13.600799237356810
-0.207860266551677 2.661348165597462 84.194592824060479
-11.228746591736135 -11.314166643197529 48.294131429005539
18.766942806345824 12.047035055204020 7.699733477591735
18.782773049836873 14.031520534549646 3.501233369376236
4.082198983430083 10.661673613345089 66.778884345235468
-4.502087765881440 -4.761506917861518 85.024573292810473
-13.361516386559980 -14.021128350934797 9.070354704543988
9.018545639276150 11.603540437974742 53.095623711300419
-11.785070499785533 -12.833340864842762 62.955298538099022
16.956959989087181 10.904534917453452 32.690882017074387
15.183549431958777 13.606841692496824 0.788035283238755
6.082756198265352 12.977345324032511 74.935475118749793
-2.531770236562587 -9.857770658865324 -3.067968750000004
17.257621149544772 8.967904930169817 18.470346295864399
5.548637991297933 11.136318948906442 71.307065605121295
18.451210639421642 9.577944602886463 12.487219394956972
-10.006102339921032 -11.954678029112950 47.556780551404408
7.478193064586802 10.668370183918421 58.361768221282631
17.190668243490364 9.592048471547812 29.853419850318708
11.481259375810213 9.441745262413376 -1.210644531250002
1.726032911568261 2.791434292426691 84.060608449060467
-10.786580174985060 -13.284249465658865 56.905117177242786
1.875005551663085 -4.773693791782436 -3.143750000000004
-8.280716603028097 -9.687414413887272 79.457386076494345
19.331867021549460 10.920488241610808 6.775458200268556
13.746549201072300 10.801119701030490 44.087145597762145
10.892414148348941 10.770074499286091 50.214540159454508
6.153951491582820 9.197911674542301 83.001721730310464
18.749856019345355 9.496792460119302 11.017530458825300
17.072117328974088 8.525360251886882 24.784366006803619
-5.227964074618190 -15.263716409506769 -1.532324218750002
8.670777543994909 10.518944532073506 55.681804344899803
19.615384630025183 11.209584510639308 5.708823617897737
17.087394671531246 8.218951170616165 22.033315329715112
8.153830984913705 3.779935314988246 -2.795312500000003
2.980642743382202 4.076663507475849 83.836096730310473
-9.267956910287516 -11.691128612391825 42.991717558006570
-12.549595461472505 -14.339449889393681 30.353269208435986
-10.359266933073677 -12.601742187771629 70.361325310684308
-9.283894352808797 -11.847620611510056 44.530374266976146
-1.005817784214289 -2.341422935848483 85.126038136560481
6.224371213961725 0.703532663750629 -3.059570312500004
6.693574420284613 11.709689367004460 73.276740048266788
-11.857998431274300 -13.953591385816850 32.694880314381820
0.592449594350916 0.031805627420717 84.635315480310467
8.880813079609881 14.057994220339557 78.404201688005031
4.780780120765822 6.383570752292505 83.468518605310464
6.018294012592199 10.415394354273149 68.915049630047264
19.700982747302035 11.569464964339364 4.427572567599155
-13.308877326310052 -15.077261379153986 20.890869515606777
-9.444625296436879 -11.579174941804292 74.789377018690317
-9.493186660395553 -12.518055183287203 49.066297267852057
18.668464291996482 12.352260097621423 2.404849188720708
-9.201602914642082 -12.119721800692163 46.128507083545990
-10.337206068551497 -13.337378459963727 66.066832969965986
7.462429968126662 10.378465220674569 82.510269451173286
-13.228185096419956 -15.142927626302672 22.943369599322718
18.242362395124129 8.276375473576424 14.891231941853079
9.310258707248000 13.777981427769248 79.936369063565238
-1.973826657377341 -4.390784904440656 85.263147511560476
-9.763404202941418 -12.377928484448720 72.267922646223099
8.531606989580970 12.113011976917035 81.394202714042336
17.295361231398065 8.204426944448564 27.238200294100015
-10.262965950570383 -15.413231796817829 4.402504663221793
11.050013962531704 7.051478518066532 -1.836425781250003
-8.829833723816989 -11.976836908667211 40.601684355259344
-9.449570574926765 -13.094306550885074 51.817492974707051
16.420708112664062 9.344708644509167 37.649848938544700
-13.035902271664662 -15.436041730660428 16.879754577226933
-10.149809857858173 -13.167673776845639 36.896929761776612
-9.973335729257203 -13.808128646133706 59.729564491846872
12.563841176557954 9.865789620934144 47.392326803650761
6.697379308938397 10.181602491736731 66.327034911709418
-10.843449290531291 -13.766346006120619 34.969864388450404
0.552729873998099 -8.448677846665134 -3.215820312500004
19.240907853023408 9.143172720650099 8.717755954209752
8.576374218544034 13.180484610593426 76.262023799331359
-3.919516047914017 -7.369753262638958 84.541565480310467
7.585300728714995 10.039933161748358 61.627649787584602
-13.023968389824729 -15.482546365471617 19.444910177301299
-0.943249589619198 -10.748082886661104 -3.280664062500004
-2.907954417862577 -6.210391045474034 85.168909230310476
-2.001529475277428 -12.306315623251514 -3.078515625000004
-11.767138576605737 -15.625207334615604 8.056334575099056
-6.096063534147892 -9.403953793560788 81.499028344484003
-9.492535287555278 -13.652414500390448 54.707494083081727
7.125192755846964 10.995445982292225 71.800974734872554
-9.168075050819349 -12.679322153538589 38.751640190272262
10.302266801078201 9.695546872409862 53.184019325490070
-9.803143425421275 -13.895448404969835 64.051136354068262
17.460898646861409 7.974973187295060 29.663365696277705
7.355168091476508 10.030484557327302 64.485596009626789
-9.589345414856266 -13.333895206159346 68.649076705051698
14.401390481071846 10.657464102997302 0.179845816492715
-8.667825816719434 -12.728587038151979 47.494559591091196
16.208791457944674 11.643185302728220 0.653891609778525
17.460406985082670 8.315841166019244 32.228739811721219
-12.481619215994082 -15.870960108141723 13.131053115174156
-12.227518547362454 -15.432484913462581 28.713617158913106
-9.497983926539769 -14.083936959920297 57.629713457541030
-12.574669757357096 -15.675007899840844 26.123633925494190
-4.666982046612129 -8.817331350690948 83.239319386560467
8.504209769084408 12.325480202042307 74.740592098646118
-11.972061275525766 -16.005726337329701 9.969097220170363
17.641496211482099 11.627830381162479 1.252383554016788
17.892763625913759 6.831700164510194 17.372847866183267
7.417214059234120 10.523405677087707 70.729863096582079
17.537624006962215 6.618583319881491 19.381686953990020
19.038838605777478 7.768303704716048 11.423332087845527
17.345385799163303 6.822185322087322 24.824467564580907
19.952851516940004 9.473583596833858 5.899968406135184
-9.337681256994316 -14.189565941955975 62.680206488354827
-2.810796172014672 -14.721879174674598 -2.425683593750003
-7.549371437980029 -11.347572894905801 77.162451298173949
5.271983485044637 -3.154206402105587 -3.053906250000003
10.622538854571840 4.627363235375754 -2.321875000000002
-9.046930487213803 -14.219739513295847 56.526990369636039
11.725220840557636 8.916947311052015 50.236695132381456
-7.679452558198730 -12.728340600090146 44.691394108510217
4.424539344731539 2.272176595348733 84.117053761560470
14.710159367931196 8.090522827876031 43.548988317888416
9.799997027834324 8.854972632631750 57.493671057364864
-7.117577733844691 -12.830726108508632 42.586414419343356
8.653222800788445 8.439742403462830 82.558423462875936
0.855519942896278 -3.885789414141747 85.248010792810476
20.242036375029265 9.256618713526320 4.025642885645603
-5.682793151203684 -11.113104554259069 79.197161786371225
17.582495148066290 5.299937156850845 23.451192276506184
18.650657979452617 5.633812842411911 16.120317516422062
-7.769809780224522 -13.808341496517475 70.297052150940587
0.874899093834624 -11.929928000523368 -3.313476562500004
9.096922081371329 10.295091103829654 71.938645363714926
19.560765796772753 9.618962817595110 2.332231488900628
-10.312492654174836 -17.264777220933823 7.972859212157657
-6.544541105308295 -13.178659773440701 40.934098680091168
19.615295448734866 6.329781842626564 9.927722507817034
11.208491310271862 11.996937209477339 79.736539249938417
-7.693889987024129 -14.875803725370050 57.998110653937253
-6.649992529378320 -12.554496664690738 75.415963860890699
-7.767683219179574 -14.403391045974571 67.490504333922246
17.936310907092558 5.757108395701838 30.399268215331702
-7.042797896354654 -13.226679020658496 73.226678916037912
19.071125390973130 5.431164825411847 14.670658945688103
14.513647168566997 7.487736203925500 -0.407031250000001
-4.436679079281828 -10.906021534689220 80.547510419595710
17.816812654289681 6.277506495237032 34.636149390507043
9.464556721036484 8.845808428270795 63.854786827705951
17.349962749754024 6.423929253129576 37.270720365564060
10.694702498074729 11.581202996140750 75.200456152976983
-11.381232269425057 -17.591865376860909 19.255259590933402
8.397647889851957 -1.898842892120858 -2.812304687500003
-6.338575874991098 -13.740210783925043 47.098872443117507
10.449107896372068 0.944311016631851 -2.558203125000003
-10.815642000899302 -17.296944017193358 28.011614140237818
18.105834215482965 8.979746315696952 1.158640411074100
-6.466700329248303 -13.776000467889805 39.735433855507274
-6.983911789095868 -14.256556088898344 38.545825095195653
-7.062432768130546 -14.930543697729435 54.544241035499681
17.960755320802864 4.330441954864240 21.193589485956348
5.287854983547795 -6.706702691202270 -3.109277343750004
-7.097401744532822 -15.031593816988771 56.104560076639828
-7.341449539814050 -14.928600957523658 64.833911018241480
-10.134155374669110 -16.919573210843886 30.415986345550909
16.370468063339153 8.393651946046527 0.385399994009226
-2.553434289584679 -17.967133363640659 -0.928027343750002
-5.489312886478666 -12.203911924608086 77.194693121301924
-11.231360399100708 -17.819311901546602 21.180036736298856
-0.142403273397506 -7.473857760610529 84.889514699060470
11.695243060696482 7.246897718176799 53.851144587852914
9.641586623914398 8.776727878812730 65.763946788835057
9.635159981351217 9.420331819227151 70.188471839358229
-10.494126103105865 -17.950852059485953 10.765218695499586
0.227099066121669 -14.498893004205090 -3.051757812500004
13.599268447295456 4.970164329483351 -1.529980468750002
-11.023292128007496 -17.953240633481489 16.911096481955973
18.578684854967154 4.252013182973683 17.907538167936757
-7.022102048545215 -15.229617991033754 62.167590738810439
-6.197855415831240 -14.399301805498474 49.935350511530316
-1.815053945758535 -9.684386518402583 83.469788136560467
9.754639821810430 7.068675347328559 82.731702199060464
13.612575610724727 6.548119814888457 48.440629431020490
-8.219923806544035 -15.955702428438075 35.090434330554331
10.407454833917621 8.036163652078848 82.375224107423975
-2.938238133914518 -10.722005121905408 81.623229069147939
-8.963232273111696 -16.649729354421623 32.977847130353616
15.135050440972643 6.034524797290939 44.163301636174502
16.566080228142173 5.586304219416378 39.902660651206396
10.746426814936800 10.360922296588969 73.694879193499474
20.051345211587950 5.353098039010153 8.411893130959399
9.947840135002158 8.810568892009464 68.024100778465225
11.134128633017445 7.084502014617413 56.905117177242786
19.616425614059526 4.605925861455824 12.135130817762137
-6.596475461577412 -15.385157022296328 60.038947235206095
17.968401293538236 3.851326553878124 26.123633925494190
12.044903390776241 11.540359084006820 77.697047305486834
4.380941362514971 -1.965387887845875 84.895764699060479
20.554060259102158 6.201491864654859 6.061983357948121
5.894920583761471 0.343556608937880 84.434436574060470
11.290944319516436 9.300946118172542 81.338425430570197
17.968570829877216 3.542065268278471 23.276046652836296
-5.212569998522858 -13.868667508045831 44.472208600952690
-5.306149725605171 -13.908387068760616 40.683736494678151
-8.160395265276941 -18.265531367398882 5.211918285974178
1.894588445398857 -5.919920018101085 85.363635792810470
8.654841924458070 4.552306654621281 83.199085011560470
-6.930808627258823 -15.374829371745959 37.232163626349966
-6.034312915367169 -15.070588841556910 52.830391006335773
10.622969356912758 7.702766554753012 61.523816235578039
11.903310491293496 11.273858278253600 76.152445989217227
-5.054993528211976 -13.892124864926487 42.166792156318017
19.930097346802501 4.680047051534560 9.754292921609803
8.032687471384532 -4.389380356383891 -2.858593750000003
-10.612864409813188 -18.477434294484990 23.666566554219180
20.145390515081683 7.734873449779597 2.355311709886523
-10.328279956838166 -18.334734741583503 26.211820026799028
7.201977050009998 1.622019278378286 84.113538136560479
-6.086933554710315 -14.837814694574705 68.763745875633589
19.410686948886298 3.768299068787528 15.098951733770360
4.137746261728068 -10.470056222004692 -3.333886718750004
11.145592976666730 6.972038929860030 58.869377641988152
20.783980562516110 6.971661739327960 3.636568661647653
13.200302483487857 2.647900501731358 -2.078906250000003
-10.217521025579417 -18.745902036779555 13.766659509938865
-3.512052860975346 -11.888663178172290 79.052729542343258
3.286047604811176 -4.809531527894639 85.343323292810481
17.828990701517800 4.702066963590739 36.886278158986407
-0.126381993214833 -16.861881266136230 -2.319433593750003
-5.898160626147536 -15.274752650483256 66.945770852544712
-4.262022395120691 -13.136962889958342 75.612138042686865
11.137181449868304 6.747039657982655 82.139730406078996
-5.186751846703829 -15.305680735056702 38.847306001094147
-5.106062956163738 -15.788290513059609 55.214666341207575
18.353352270561761 3.642751984061185 34.009858076941711
-4.766852108109252 -14.423093764321754 71.674864034156656
18.397620773422958 2.643239649109106 30.244404253853460
18.428105522172995 6.334330458103547 0.769687981076515
20.644750246768869 3.551730949454738 7.354002428727158
-8.288290659428789 -19.736303142108653 8.211788317007155
15.231877458041378 3.191271202284746 -1.506933593750002
15.723774184274044 3.995288125819332 45.053409943551067
19.059801752300892 1.689477547224498 19.535239146507056
-9.555642314661757 -19.828502649932506 19.634613534562295
20.034703052987201 2.237048968766696 13.526694360051403
11.144585586941471 -3.081883563899503 -2.567480468750003
-4.537002461515665 -16.208044226304501 61.372300421429358
12.039352261440325 5.962619451794080 60.534936398564575
1.074118111317213 -10.222146936910706 83.582385792810470
2.056023029564500 -16.576085130557388 -2.854003906250003
14.505150048741742 4.043704653305184 49.137268253770920
11.932074221535720 6.687816145136508 64.106580132020682
18.295121197345811 1.420835352435997 27.873078513216516
-4.407223787164179 -15.928964292529090 65.923898099560233
12.733046229744758 7.433633157359550 80.949532485829650
12.599784641296523 5.318148248328769 57.673588378724006
13.379230032480658 8.926900784127410 79.197161786371225
3.624890587403424 -14.520977733412639 -3.235937500000003
-3.475749251085557 -15.372776634923571 40.393732032753157
21.368969278760989 4.328620934611176 4.607275136969930
18.677500889204005 1.041466775428711 22.565240158302810
20.434976667800704 2.348601420286484 9.131408538780200
-3.556025107340392 -15.785971343456534 51.082702904088876
14.939493644583768 1.762858820392489 -1.849218750000003
-3.729995799479934 -16.044920542453244 52.596046600855111
9.442966209274122 1.310181799013202 83.656409230310473
12.175798691504925 6.054764631407306 62.223659304045647
13.814397341325083 9.619068207490574 77.675776447317674
-8.383499203560181 -19.566658718235207 27.989983033282950
-5.711884930644523 -17.514390939294170 35.679534487844720
12.521822884203214 8.180056841508458 71.722182357966190
-5.136195494736106 -17.084073684297675 36.886278158986407
13.744582405402223 9.408907152749514 76.730534000306932
-3.764243070902729 -16.327133678549629 58.274173336056570
2.396847960238999 -9.399269583950900 84.281018605310479
-3.972434610528512 -16.271989390503716 63.623969289585062
-6.345114199634054 -18.325503089988306 33.690881538822453
17.376963113617546 4.839590072767288 -0.037011718750001
9.923501891552460 -6.253531051362425 -2.839550781250003
-8.410629024815860 -20.539794668665291 11.076550418501611
13.459190657361347 8.831367659300067 75.088649031728252
1.810239839839946 -18.033864258591574 -2.338183593750002
-8.698198599086977 -20.276812221174971 25.029262901966874
12.412780879847785 6.773164959173815 66.461104603113824
-8.976955907979143 -20.520307134869004 21.825761783975494
-2.526910317141025 -15.342418019268420 43.167125669262475
12.620333901542246 7.470758633974316 69.655508925928501
8.134646662757531 -9.103071674439217 -3.247265625000004
-4.232580356766878 -16.805336174229701 38.013401872633466
6.990500961657865 -3.527731338957423 84.870374074060479
-8.907039095302155 -20.511046742766879 23.289524092824230
-8.828337125592306 -20.552853857385777 16.933486748113360
-3.467832896425084 -15.677058869081574 68.419306729386875
-0.292796549132211 -11.953957328853120 80.051140238916645
8.347267658030564 -1.446735248925517 84.215979542810473
-5.816947491823399 -20.407732936073121 4.712019652498688
-2.608356187359032 -15.632671279093703 48.666985418145316
20.324183339254663 1.182898247265080 11.767670037292119
18.440427871322541 0.240865966429576 25.911712176741801
6.077243728395144 -5.149268472563831 84.964026417810473
0.849759818963776 -11.367765167712145 81.828484723757768
21.296226192186772 2.682039830970202 6.122465798045345
21.237572447248059 4.568721783849097 2.567429572996098
-3.416447328806230 -16.409509707828917 39.141755343371834
14.103350914545089 3.891944159500969 53.197277995083276
-6.902381645137962 -19.323948211716161 31.068389849463887
19.965988849899460 0.682157876630917 15.955503720441731
-3.115917385095781 -16.535247090937375 56.020914606838943
-2.171067710697906 -15.467283437469984 45.883393173056611
12.741965453453483 5.614594342161150 81.302301195800581
18.023666366914263 1.764792974917783 38.371853060535159
-2.953079973797772 -16.441393581550418 54.186729184531416
4.429532812255530 -7.747438151445235 84.657288136560467
20.986985070467266 1.818775970962679 7.310994446011120
-0.745290327490564 -12.664372990104392 77.817404597949519
-1.360983980206278 -13.296860608628304 76.145132474988316
14.410728971884074 -0.696599305015240 -2.045605468750002
1.194605726147587 -19.795793508256100 -1.148046875000002
-1.863543854979216 -14.035720846680341 74.178409059493475
11.950154046420675 3.775791533897458 81.961633882981644
19.599635367068835 5.046101682360193 0.669088223473828
20.342928130173586 0.636666883201921 13.391717130356160
18.725888207415270 0.929245722892644 33.326032055396084
11.036923747940266 2.076435033751519 82.670629551117997
13.629775286193878 8.048321780217719 73.376740506487081
12.994453368924294 6.773271133069227 68.094204462717059
-2.273155925813863 -14.693181994461634 72.498234050415817
18.424629273585808 -0.139714809728310 27.695249570933942
19.374676728462607 -0.022479638834861 20.271729109585166
18.590761193004507 0.168327364481297 29.731004254120148
-2.464836267650815 -15.201808631858123 70.909477325655061
-2.953893831088884 -16.715807290197343 62.150335566314411
14.383830035352165 8.157574975794251 77.643852524407933
15.456442894871302 2.640923747959934 49.345715859104899
-2.622771614946665 -16.797873186719954 60.838996389356637
7.001931134938976 -12.511903159650315 -3.484570312500004
-2.145392131643405 -16.519824509375464 52.525291164071817
20.772881302423013 4.602597903498056 1.255515862030385
-8.024562291693849 -21.368848473345615 13.840954464369529
19.791083017506534 -0.313746433735968 18.628109974922790
13.779862122821861 6.034811951972102 79.973531571001118
16.892622147903051 1.496933405956992 -1.193066406250002
-3.602850507441765 -18.158117131437862 36.946584553680481
13.669989267520819 4.386593545913299 61.601696255047486
14.437970374874181 6.641600653864854 78.456554058217321
0.336712213816810 -13.107572624152821 76.744991957418165
17.079298586239410 1.337804142546365 44.856806031270501
3.744422064103639 -10.542865448663260 82.823206105310476
-0.712058951150896 -14.602005170991106 73.207413848053903
3.773277037662479 -18.510676569599575 -2.472167968750003
22.089711892533671 1.707140160940056 4.744603385974401
-7.497388287855258 -21.737982913276422 23.244596318828972
-1.028053561977347 -16.557502645548141 50.927720138673919
1.948573879720313 -12.095735309623567 80.353605241301196
-3.967065100601493 -19.085628840060608 35.150561719206678
-1.520853507263321 -16.677469317823466 65.700750497541321
20.797995024514130 -0.817070605173332 10.080964824757192
-4.551374494749426 -19.875318412065251 33.009617075966574
-0.955116969229102 -15.812236277653952 69.801208790493888
13.576404364055703 3.727254611946869 80.547510419595710
19.051692287391912 -2.053086323712136 23.913074454226958
-6.700418786226539 -21.671757239316772 25.739247664074885
18.891865429272780 -1.420112025562285 31.496356047716247
-5.956542007522857 -21.170256239063615 28.391386656821449
-1.129835719630089 -17.157214178983015 59.947476669839801
-6.046954557505361 -22.319247298968321 8.443993027850460
15.031509067561919 6.765158965697108 73.916196345896793
15.608820052290440 1.911402724882491 52.436840487689679
20.292018615738410 -1.745842375805490 17.404266256568537
20.963196179627424 3.359267680243702 0.806399969539924
14.925131378346061 6.192697185081411 76.820827567166248
-0.103519059986605 -16.618993091538929 49.283629647686539
9.049591238846867 -4.871950529899181 84.130530324060473
-0.679977670009505 -16.377575054879070 68.052973161074789
18.722283120213710 -0.766767074234013 38.135713397507899
-4.801761318636187 -20.806174610461774 30.699470148059063
11.959869524019666 -8.348839558091607 -2.950195312500004
21.731022225402199 -0.462836063993847 6.980247437873363
20.689781052102450 -1.904587857231512 12.957714973285903
18.995610457156474 -1.391490798681517 35.169329911252362
18.803779211892994 -2.639600259913937 27.638788611460868
15.447885734053889 2.009865203852626 54.592779418732079
-1.501076338703773 -18.180405779356352 38.820953791428877
0.282503181725305 -16.630387498531622 45.901224095986414
11.717406431974196 -0.966631111719727 82.564840997035077
-0.320633728173313 -17.240510304722754 56.452209990168285
2.805773578370977 -12.262206001738821 79.104363726918422
12.837570689945034 0.851778904398526 81.831736255041278
3.737478659162898 -11.739140081125415 80.985915223338665
6.462746518828408 -16.743659036378187 -3.201562500000004
0.431542916492882 -16.668294261229608 47.667875261915007
1.495980178707004 -13.603891785239508 75.412255518116467
-6.670920974158470 -22.553831826837087 20.438947520702538
14.560699333278080 4.311567815927082 78.821398612256829
13.447462713001645 1.907209552975501 81.055298195814061
22.880191150955749 2.043174239726714 2.640801733322800
22.490457648456850 2.558938318168378 1.798299768378894
19.854724906648432 -2.812331438088163 19.955394350041235
7.139822459743232 -8.585053514359521 84.052795949060467
18.416720300555312 -0.993751715034446 40.304428988066739
16.180957819524171 -2.880557170434714 -1.833398437500003
0.527621346728351 -15.296199149697701 71.576181264472723
14.777314335887144 3.958249469058976 64.489848967774719
-6.254141123964516 -23.008386464913947 11.469991399732084
14.548662622984908 -5.396001148684803 -2.293847656250002
-0.129779179726233 -17.264018217030230 62.305575910443054
-0.063192423151182 -17.577673615447786 41.097757706333738
17.425501608982412 -1.266719280553596 -1.365820312500002
15.258769964144774 5.462553634042504 70.409495480356966
2.521994210798638 -12.913061207663572 76.979347023672673
16.840866832431129 0.700463093041336 49.576288774712459
5.321303942759669 -19.000760509109455 -2.743261718750003
15.056761756366077 4.484031757652812 66.724591468366583
15.198359326765292 4.977874121581423 68.595788327838704
8.273432438571133 -7.435475033367751 83.800647511560470
4.778594200794674 -19.993960880309114 -2.308105468750003
15.666815677869874 5.686064692384345 74.883073999420930
18.697444924358184 0.228701881470836 -0.782812500000002
15.519383227474025 2.125404449946951 57.713071696188479
20.638251432228504 -2.915528902986840 15.719742952635091
23.035662796767010 0.756461792359911 3.692297183864413
0.333185253336034 -17.454843001150167 58.703176720960897
6.644617164145308 -9.739763663397699 82.694592824060464
5.373677697404105 -11.085609013210046 81.815476588174960
0.747182830651089 -17.310866763705651 53.643547507208702
15.694945443132740 5.500970875468544 72.428054778477758
0.843479638794559 -17.319408904859003 44.055781474020044
11.034167400733995 -11.549547813718515 -3.415234375000004
1.803334048031189 -14.476697609129246 73.526435454625840
-6.171266906417368 -23.262435929780732 16.526414060099054
15.258812758123376 2.540397305237791 60.938815970208424
4.155196813798404 -21.326241489725540 -1.302050781250002
-2.990627979543378 -23.029301051949560 4.431155515052011
20.246016861274310 1.658757741394579 0.162078264257818
-6.111641719642389 -23.434892011362823 13.740451584137443
22.854056969020704 -0.407257389238977 5.006575102810257
11.203582478360536 -3.703079336694884 83.036877980310464
-4.319346864456850 -21.860684304745028 28.692177473899388
20.488078285605457 -3.382379471454783 17.345921417962192
9.144482323433031 -14.521815091773986 -3.587695312500004
1.351192643508138 -17.092437298365375 49.168316428568765
-1.556091682831015 -19.702214157930243 36.704592780446042
21.349449111876552 -2.638882610911835 9.025630257123211
0.675318041558322 -17.542020984580159 60.104263950026748
19.022588997027746 -2.318566348505771 37.784200407683826
19.521269429513733 -3.991566311419350 22.718351354395899
19.190675973721760 -4.218436044677182 24.775453114743648
-2.152000830788547 -20.418655988616681 34.647577494604647
1.418614727417976 -17.236118727314743 50.821434723415337
21.042546949137662 -3.187819233187603 10.786205209771509
-2.830019135119377 -21.004452268894749 32.434258229335647
16.079016151610205 5.275210569125727 73.775106425719429
19.040551064184037 -3.701591170772902 31.455355296217697
1.266902281000242 -16.266842253000402 69.131333862993131
