ply
format ascii 1.0
element vertex 843
property double x
property double y
property double z
end_header
-8.690022531276005 3.758368616679140 22.243244687572748
-8.513676132805198 7.039396360638941 20.997060832927385
-8.378085535910651 7.195772071840857 22.022583446196450
-8.689811714747956 8.261525051654420 21.237114832535767
-8.722215776794776 9.566116701023834 21.759517550620597
-8.581284753308264 9.262575747017252 22.935752825165736
-8.829483830591746 10.461415122070315 22.448033270403947
-9.993594032429357 12.204011517609246 20.706255873497469
-9.376335089132180 11.882617911803145 22.086265651082126
-6.900516856831735 -6.655992001225839 7.687730341238719
-8.305342047631296 -5.584199434198878 8.476444401477954
-9.593488264863399 -2.782118225132859 7.849123326905866
-10.073032012879665 7.784364366156071 32.280394574918837
-9.939982774605685 7.641486095196414 33.436184070622531
-9.329034453472813 -3.417937813861806 40.335442308245916
-9.347984601388163 -4.962917319696534 42.869400728890163
-9.684739752770325 4.908977901353761 38.303827311459045
-9.696482132388157 5.517331467839686 37.326970532819935
-9.669556569216017 7.103210255809982 37.163083285437729
-9.732727893584839 6.187430004219424 36.355113256764909
-9.712109653493378 7.775897528194955 37.949786894803573
-9.701330673041436 8.430786525083782 36.974588327475146
-9.740357406317026 6.748959564628554 35.404518418067568
-9.817889926919788 5.168337309787851 35.577602463350622
-9.796082263789932 3.636390994512135 35.725748854081132
-9.703106569601198 2.037374130673496 35.831452419098369
-9.613709254696253 0.313633106645457 35.771565337094643
-9.523865812668392 -1.202296570587980 35.930024930143361
-9.309185059154055 -2.179241882489594 38.126879478667455
-9.160622111582258 -2.935351289356750 37.313028764125846
-9.144024217424077 -3.498528907038478 38.397449375329337
-9.310009499890215 -2.852116267710392 36.284946153653934
-8.989505467721111 -4.128522561806718 36.533877099736905
-8.696403515688861 -5.041282227418920 38.463308965444682
-9.001768490044320 -4.324208222012356 39.297204517890535
-5.691609873795723 -11.552577647330136 36.484827480254275
-5.145659469459221 -12.274531501071399 35.556422966212565
-7.525468653301556 -8.309176030731583 39.576921424493626
-6.962185635284549 -9.258707735950312 38.882315116194832
-7.291675918983131 -8.904694911724317 37.859446336817101
-6.588720385709821 -10.415417874302920 36.316525871609706
-7.249280351566434 -9.238504883119695 36.249848820325930
-6.874961529009514 -10.041347696673277 35.432795618210996
-7.631369048693126 -8.199996106557485 36.932670608113106
-7.961356373085617 -7.859556811776603 36.063675619141854
-7.391793855215707 -9.487788441758584 34.520439934769925
-6.694896634051259 -10.633090522342957 34.545405664440636
-8.591351687019829 -7.341167970014916 43.690193239797331
-8.969002230878518 -6.229469502788534 43.043959315420032
-8.526850408011649 -6.237192992983792 40.562686201580114
-8.049877019399272 -7.169025574230862 39.977076753508328
-8.517829579937136 5.094533460812110 22.577880819664017
-8.658615719638442 5.633459993338936 23.743056866223181
-8.327547358692239 6.533373351117330 23.001831037083246
-10.398590427391497 1.192756484021596 17.340410559021681
-10.598645822506782 -0.772656669203131 19.110113597710946
-10.357857422088786 -0.422968072314164 20.271583960399521
-10.790694192448830 -1.278069233450035 21.180044760427823
-11.471534702423151 -2.481975081795537 20.867123956137213
-11.330239861562884 -2.115300064604413 22.011336963188924
-10.657901771359450 -0.414621935905046 23.483096241758204
-10.126624989705665 0.844021252923682 23.699858908585540
-9.594063283567962 2.058459315057516 23.627747090261501
-9.236931143608988 3.386079711054804 23.904581880535630
-8.515814781132251 7.758615104269381 23.214022602369891
-8.582995812591918 8.603676114166962 23.890254224102168
-9.765189300167043 8.713583539110404 38.719643456296801
-9.878370514425054 9.743451872159797 39.297204517890535
-9.816761021100421 10.130939088828772 38.338506597550897
-9.733988709971346 10.270574709952381 36.953630855279563
-9.739626704982577 9.595676040669913 36.169089516386649
-9.832970851928760 8.275930488445596 35.181573761411101
-9.918181162780998 7.257572608928345 34.406221790865892
-9.833953840199767 4.198133561153471 34.787576152655895
-10.006343646894230 4.753813321179153 33.901120773022392
-9.907914464960946 3.226911721806017 34.051898722683106
-9.921324769176517 6.120736278688972 33.670809505091505
-10.056386815073095 5.141523524014413 32.942784110796218
-10.176112804149138 5.451278833377125 32.029693051651101
-10.119756316808532 4.087085930115360 32.258316173463086
-10.101513535021761 6.669927562115713 31.803879205655345
-10.227230141170327 5.625185811145517 31.117098246004964
-10.295741946165972 3.077869375873403 31.610667852459137
-10.139408875287172 2.763025377029206 32.511737480196508
-10.081425166213632 2.511538965205660 33.345744017050123
-9.879893849610976 1.969563392798913 34.216718360592928
-10.109944149786957 7.949807632303514 31.356976004865039
-10.184936668290831 7.856213489272185 30.141118802664085
-10.226323892710012 6.113754533150017 30.213252203531756
-10.219565012252184 4.823195961302651 30.402008679791777
-10.354002593592174 3.370629201705005 30.679436727747646
-10.340202793034139 2.048636012067116 30.943997280839451
-10.095116010776518 1.513322666187704 32.680114697418624
-10.165705586834461 0.406375541745585 32.239911327294060
-9.984196830720219 0.164525693410687 33.051924366621911
-10.354702699237892 0.655799303107319 31.263404204076842
-10.206131961033597 -0.680935344170154 31.632995794573045
-9.823132644764410 -0.844467504263167 33.706840856800696
-9.800983275227388 0.249299527802721 34.163008680415793
-9.809365736014028 0.951939017797233 34.883559041629539
-10.542510459460736 4.098432123320143 29.919442673708375
-10.439482462718935 0.947076630169363 30.344803568689937
-10.873551610807096 1.734720937265304 29.661491072480274
-10.669842107841806 0.169370794687666 29.898369403863981
-10.825471838688356 3.286614835836146 29.431078695870070
-11.063190472135148 2.467071134100728 28.946702105341441
-11.050556814627861 -0.565944715471501 29.447477041497137
-10.582396185164589 -1.355248806309500 30.125604412181342
-10.695012245183207 4.827149622363029 29.216051357832221
-10.586105127377239 6.430889748799665 28.975000510118445
-10.683021398352047 5.512907613098699 28.451257167788008
-10.398981778288020 7.377083344387524 29.637287809784802
-10.347544498150242 8.089351916490571 28.892781049265171
-10.393589713665877 5.867907592419932 27.662411559356364
-10.747092543750856 4.377940566519456 27.918403519027674
-11.036361329213497 2.968964133179912 28.188492222805561
-11.228208970971247 1.506213833801859 28.451257167788008
-11.321399670926647 0.030738004125679 28.718304970189418
-11.192003805560200 -1.450242911306236 28.983479115783975
-10.265540915220242 -2.908002191757175 30.352434908188837
-10.250282400062012 -1.832590106463192 30.989210701691704
-11.334373992428215 0.539749362007784 27.954666986050995
-10.039294278429317 -2.078981714855986 31.955753424709552
-9.761022285894461 -3.488372340131110 32.306142528629060
-9.779458291798749 -2.356004460761389 32.964626267726373
-9.683502708163379 -4.811339723123971 31.431715090877915
-9.381531599493110 -5.081818219730102 32.434719584852431
-9.632931710398838 -2.278806023408835 34.073415562583030
-10.102979488057731 -4.089422495499344 30.652902730842342
-9.679888352801363 -5.675339852238881 30.770301875517397
-10.775200805125717 3.305929061821480 27.396474107059976
-10.393256064217336 3.487854173626894 26.575970929778748
-10.800226451626463 2.171089686034822 26.875582872813919
-10.885909651203754 1.084656140524580 26.314864977228318
-11.206806561532208 0.888808718463749 27.142494431480856
-9.928568586462980 4.737619964410777 26.245816325367944
-9.999258508657292 3.559974772869904 25.675896617321932
-11.403593841812446 -2.334671307294888 28.530114344414855
-11.079799338078550 -2.926028072523473 29.263208661794103
-10.575386929987046 -3.403141347808701 29.895732705444441
-10.752373153712375 -4.233662225487365 29.477487854323851
-10.848307554162535 -5.225164520393789 29.224385063216719
-10.237658278492567 -5.689632141894770 29.850822455831484
-11.474899148113261 -4.755354093526515 28.395524901004364
-10.883060887071521 -6.158578740355169 28.798649658347372
-9.529848859162970 -6.828913743150795 30.409630823325646
-8.877242420029134 -6.665165209896996 32.778739105933930
-9.045958431607756 -5.359152251942403 33.674413405897823
-10.620670590182655 1.222633002380588 25.305704769820995
-11.048280556335618 0.005493349052485 25.615127401483825
-11.556129888772443 -0.449325542974428 27.424485389304998
-11.774693158048258 -1.478591673041397 26.888373334209422
-11.735579264924633 -1.894157266086387 27.717581912476451
-11.583834892504278 -1.131528444206514 26.113717972585356
-11.927294357705732 -2.464498321876727 26.429478257991089
-11.614449116844398 -3.310511636963505 28.032972842608370
-10.011677778955507 5.978559469827398 26.747240528155796
-9.611302608928606 6.057109626464207 25.840582968544627
-9.497045102535267 3.622265113399502 24.913021853782350
-10.099729671236629 2.456623237647876 25.257779647570796
-10.279178943536301 1.345725068790583 24.511414211575694
-11.904569465454477 -4.304061452900475 27.582419838837836
-10.974676064693591 -7.232168722965293 28.398463115179570
-10.184642662686674 -7.665252969514935 29.213272329885768
-9.421651083676998 -2.407302921919651 35.170945517101060
-9.325386001854561 -3.905832674011346 34.409793343572233
-8.714812134870893 -5.421291745074636 36.116393400253202
-8.582762974285350 -5.516445084405895 37.156105844220967
-8.367924618570827 -6.334738992135411 38.043560264372324
-8.918648584700938 -4.982201915198426 40.428422158563983
-8.960752256391915 -5.342514189911721 41.624898384819659
-5.832717328909511 -11.876324868856440 34.541839555606423
-4.803116347365063 -12.951794216613333 34.584623579294252
-7.961344903363574 -7.503942626433124 37.636894689200517
-8.113364890108317 -7.045733522993765 38.979178203714497
-8.423491385399316 -6.877893829233463 35.365625221846983
-8.061109465944345 -7.911660910095054 34.698616440566298
-8.845328244163660 -5.493906657952369 34.776905423510485
-7.918309782826767 -8.517447496557017 33.847202508695929
-6.405931359018378 -11.330383330003235 33.627549350930217
-7.048279225797864 -10.906083807103730 32.566692272730101
-6.202220605829560 -12.133433429359476 32.508072116957500
-9.118043107817160 4.498822235749881 24.349283499708459
-8.957201256279063 5.921997262785839 24.766973310768186
-10.956302250891619 -1.073348231770779 17.900802390112815
-11.296476890349703 -1.941228000812984 18.808795792117301
-11.663341734518728 -2.840621412365044 19.667459256429144
-12.067660545811750 -3.716467591153722 20.537317363040291
-11.898650364900700 -3.008198136665959 22.843803358477423
-11.359195869653119 -1.738313366631766 23.148290023453331
-9.989937393346130 10.810455252097114 40.059808425145050
-9.787598592549623 11.297638985894812 37.529003236588622
-10.069492407233987 7.229798666857616 27.312188876755148
-10.202275437289446 8.686479239109769 27.800016112348860
-9.812397730160441 8.800906221366500 26.878781236806550
-8.775527172256506 -7.676761581309028 31.881718915076146
-8.374265935021480 -7.946654458275260 33.124587597625890
-11.373408564156948 -0.961360091295292 25.106608985002936
-11.358774002996464 -1.282326032458174 24.253733823005181
-11.897677537350653 -2.367931161149860 24.798330664581147
-12.171966933594346 -3.629108810488543 25.706226615563327
-12.216930749785316 -4.009147213531072 26.497963538317993
-9.137226145684803 7.222364743267028 25.292020534988922
-11.610426539699782 -6.750639803834146 27.634762332725487
-10.807393756083670 -8.206495387640881 28.071989407894126
-9.349718945688855 -9.047163766015855 29.580635424486299
-9.413269250086440 -8.040714790668973 29.953609722642241
-8.936580739701247 -7.933559414691094 30.932687616292732
-7.700766985299493 -9.507863916805119 32.920934840724080
-7.544084444293611 -10.329280389311684 31.848372100207801
-5.977602018821518 -12.886753713400378 31.685059267961503
-5.196351182786333 -13.227001859647054 32.738576897248024
-10.869600197892497 -0.086888411879651 17.028166488963315
-11.433184316981340 -1.345617429165617 16.731529619832660
-11.895458770207764 -3.192723539809074 18.483180848463551
-12.080381441022141 -3.604433026792550 17.249532230192610
-12.333576872402435 -4.533178791777145 18.137144787742375
-11.737682747606625 -2.658998631613790 16.375424897805228
-12.083156566810933 -4.040283686442610 16.027217164832457
-12.342927865628056 -6.063528576666859 17.770690958874592
-12.512428415576204 -5.533519554452785 18.981072772246730
-12.496131445057447 -6.555152072306540 19.853807493045533
-12.479326148357849 -5.067013023643686 20.202106539318361
-11.922266560420660 -6.646543371229289 16.470393725611416
-11.737399843942372 -7.698475517963353 17.379914688775870
-11.983166815212293 -5.501169844176914 15.667267735474109
-11.156894008376165 -7.162817174516868 15.287848237161997
-10.526704892338245 -9.165774071449663 17.099333346473458
-11.425669199509166 -8.642729160989910 18.325986862522537
-10.837919861519357 -9.595617315364358 19.281932281995239
-11.923238924773381 -8.103385506447747 19.550796120900017
-9.317841040967370 -9.869372900129401 15.801729593397408
-8.793304912435650 -10.676948535870652 16.834380688765592
-9.546684167078165 -10.952219595176533 19.047566750644343
-10.391505562321091 -10.487882688459523 20.229132996513432
-12.398308592958230 -7.602507709121138 20.733094159151371
-11.951754910987729 -8.643130919783916 21.563243555697497
-12.634202386335826 -7.119425008143079 21.842339862220037
-9.534258230222063 -11.412806560723059 21.164816931309243
-10.861484641161683 -10.104176798343984 21.354885896617976
-11.875570433466068 -4.519474020770630 14.774866718197295
-11.792981994897685 -3.478862973654017 13.870855896679542
-11.388974966892910 -5.003967051714913 13.534417017530437
-10.358287487960633 -7.550483650076128 13.964918001826106
-9.890063794317175 -8.634004662620018 14.877369748697225
-10.671931367855455 -6.401505557429791 13.374388079977303
-9.429035662020315 -7.856559374585921 12.934699269035335
-8.180485918094204 -10.125602961807804 14.570025460513914
-8.899182679224131 -11.159839739460491 17.995375619609323
-8.190819254595700 -11.951783970740820 19.016280282054304
-11.428578967395216 -9.751507131470781 22.436886205957990
-10.571896050173313 -10.677401592430243 23.312416034140949
-11.776908943149930 -9.259195012866076 23.486719390081664
-12.721036625239364 -6.721845127304555 22.979816709501357
-12.729473903686214 -5.638613831204095 22.202180262581702
-10.822874409893092 -5.369971589469925 12.412366661965736
-10.659688090005332 -4.731392799142551 11.500836956166978
-9.831040157049166 -6.110715946360756 11.356547987428163
-8.557133570823360 -7.735472136081355 11.535064378742913
-8.036428459822218 -8.863221596550108 12.185219837153774
-7.208268119018530 -10.167299964801288 13.078436132467903
-9.173416216602540 -11.992918374066369 23.159253007642338
-9.729842640080067 -11.636724864494365 24.193428252326516
-8.831566017379910 -12.395427867701699 25.120385963997681
-10.205882375837101 -11.098420698640918 25.230355851398642
-11.919053834622797 -8.896925774805544 24.405771350717945
-12.386135308013486 -7.844950642011325 23.580797717003307
-11.280341575383515 -9.564291489819714 25.196037375697610
-12.081131492993293 -8.174337755227326 25.268056453031445
-12.722889963453582 -6.354994448303532 23.911743488945991
-12.575476808005485 -6.301366943642218 25.144479287268965
-12.639424940068748 -5.176837721256033 24.588658186026464
-8.591951123868917 -12.321676274681121 22.030079698239611
-7.654627138619628 -13.222448576321977 22.957790626299754
-12.245675764620009 -7.028463037690914 25.914167910658023
-12.128809000881226 -5.402445232293054 26.907544042485107
-12.154968462842080 -6.420938248548352 26.559742474508511
-10.799754765640103 -9.188500633412113 27.514457674605413
-9.999352572168636 -9.621299292079042 28.280507780754547
-11.532778720701430 -8.301370169744981 26.673085300225885
-10.691495941622671 -9.714349119797498 26.885176467626021
-8.959866940795543 -11.042839161222330 28.588268044654072
-9.137573392258915 -10.124992466486525 29.115651868339153
-8.372876524129490 -10.478039622280889 29.877260010865978
-7.276708182745498 -11.916430223457462 30.264507143513370
-7.756686306022820 -10.589671893408431 30.876101210746285
-8.357744785535630 -9.192929564309322 31.248417306906017
-11.713315873476423 -1.687518245125493 15.493317602675434
-11.632965017079302 -0.680708679775137 14.577899650599509
-11.904931383030267 -2.047354072757932 14.227869060847350
-12.495100990553349 -4.642133389614028 21.362475890544971
-12.436119413860457 -4.255594734862031 22.525986559004565
-12.307519474691995 -3.981844172048560 23.634964722957548
-12.382758729273831 -3.821500697335558 24.878314563250012
-7.965509478843895 -12.636949979239361 20.916836773067146
-7.377592696898427 -12.821268176424280 19.710198593658244
-11.632721635920531 -2.514743581912982 12.961874641442188
-11.316904921840564 -2.960117701565501 11.508441291392048
-10.512946951983672 -3.699391286984421 10.398558937874558
-8.542772934917105 -7.146954939334452 10.547575047542963
-7.339560115172215 -13.516285428408136 24.982311393513005
-7.901686157937053 -13.002515057033625 26.004172212646125
-10.563467488765246 -10.440035500981644 26.077259155476089
-9.661267303498558 -11.234208988618875 26.949018778981312
-8.586766083832455 -12.056601311956788 27.891155361273551
-7.753956335106384 -12.517796004157310 28.778604369178126
-8.269549148261250 -12.661508626913632 27.095092987531018
-6.431121715889418 -13.717058345466507 29.051126419172693
-6.891139459842060 -12.791691854991029 29.699049561041615
-11.587964030216110 0.695458191902294 15.023325114867580
-11.866658359882807 0.362567060958978 13.749467027491919
-11.025974856319234 0.967078774201780 16.177572729930837
-11.761831073284005 -1.489339003051820 11.851652878053308
-12.123765330963218 0.072792760736716 12.516553410766672
-6.466569284097671 -14.128490911379945 23.865166609426087
-5.595441758857328 -14.742365605672918 24.815737034913688
-5.844363828466645 -14.462928386598266 22.729508501355166
-6.880845009437384 -13.807657112792187 27.019013511719578
-5.592346270180957 -14.434395976143422 28.512625210931940
-4.868792232455693 -14.716454714251453 29.518301502421370
-6.201929284130737 -12.976759196556284 30.668066774922551
-6.036195476164208 -14.260315878293847 27.717581912476451
-4.453811473501378 -15.301079374998702 28.200394553620711
-3.269296166719188 -15.662308505851216 29.890457615245452
-4.166078094664675 -15.059054525593872 30.398197150016070
-2.548760652676590 -16.157576990455532 29.179880087120736
-3.227176404222059 -15.974817638501964 28.386706970331723
-1.750226438664439 -16.816275748567424 28.570845119410052
-5.671487407316852 -14.663574555445527 26.634292395089638
-3.624797552377113 -15.867995215164777 27.539200476271795
-4.260577153439705 -15.646931416196889 26.656930170855087
-2.963036553394669 -16.339985866413020 26.814719306654542
-5.046755953640993 -15.152318451028231 25.894121310032233
-2.389362674018555 -16.957190149083726 26.133580721221957
-1.783145188531756 -17.140027642608668 27.066597327597332
-4.127915109655673 -15.752465459242769 24.791365237520772
-0.423107611713799 -18.002087150020898 27.107744545315626
-1.042095839934599 -17.389949416478455 27.775631454968355
-2.633413795361282 -16.999945042701977 25.247498957236012
-1.410932191583214 -17.816974870696960 25.479567107632608
-3.167227582599355 -16.646132802713716 24.104542495598249
9.497200277589172 -2.793750054062339 60.510057836453676
7.779907681353888 -5.061024570259663 58.812169792275938
20.175023243945752 -7.869368225921247 11.235332049886873
21.772978980690397 -9.258152547077094 10.742021971490088
3.506641360006787 -6.004238001264874 -4.826464843750005
7.045049098584326 4.857730866337230 3.335845605346397
-11.328147626309459 7.462389855498624 5.376401366327063
-11.608418774921656 6.119770408007013 6.179102025409510
-9.978952005111195 14.261080870226033 37.421048570439773
-10.125870283108938 14.806791520093768 38.515290445776820
-9.950319274803764 12.889823324758733 33.883152101849298
-2.164783650678723 16.505381025480805 24.253733823005181
-0.908711676805994 15.136498932510948 24.253733823005181
-1.861401293549108 15.778716951349802 23.337884845016454
-0.307643871816865 14.808314189550575 25.438760875971226
0.042879591913625 14.048754996683279 24.518444378382281
-1.399249369367023 14.756755785853201 22.146126940230584
-0.222602519351210 13.463364730076089 22.332717108869094
-0.941383463177039 13.870580114319880 21.126730640957156
0.533621610646409 13.118913572608154 23.479472743088088
0.944228647336730 12.169426890195258 22.477745511290617
-0.316899432421426 12.991732128832409 20.236853102611327
-1.506562249865717 14.294467489789566 20.074570334426465
1.165416070237373 12.787604492976723 24.697171657038847
1.713332266633219 12.542220469082320 25.944206747306126
2.288270678123006 11.578293656374044 24.899143924263182
1.074270872887715 13.670852994546980 27.060259389005893
2.119706144729797 12.517217435125030 27.315317259647344
3.397145715701039 10.299815301651211 25.054884839065465
2.810702876086804 10.548302473211065 23.771826519323948
2.145968666966667 10.926653435914824 22.529695279514204
1.466426497784896 11.300378757568467 21.343499042996104
0.662982993543864 11.763139034593024 20.167344408435930
0.082681648668400 12.198478305037495 19.094480178117529
-2.027692010910330 14.411206460188502 18.573490363115997
0.027083389400945 14.887414787272871 26.546750950801226
0.395244059497613 14.814318934906533 27.869932437647318
2.392025193036487 12.417586987691427 28.585365604855010
3.149638523998823 11.165848125914941 27.474179399924360
3.841132848105727 10.057025344263927 26.350949492661211
4.508218650263992 8.996667090383989 25.199471155919099
3.291673158636446 9.599108741046518 22.648212288424819
4.544095126644799 8.350089409502301 22.707351829940738
3.850531998105148 8.721988604779419 21.442110461523022
5.171340702476906 7.992758928847879 24.008279642920964
5.709600805092030 7.019504329760706 22.803282056601361
4.269459887945282 7.876486586872455 20.202106539318361
3.101349130313539 9.210618792779027 20.159617390226440
5.717115508697801 7.746799201587323 25.336468908128438
6.083153338694612 7.575765415241892 26.711807491832985
6.888118508100272 6.482232085673331 25.493155073040430
5.275577047986169 8.745450677801429 27.891155361273551
6.327947162589059 7.588386097135779 28.131836816633129
8.019314724612583 5.209001515796656 25.679268418656974
7.572041328318082 5.425357141787339 24.264364417718124
7.003288450098955 5.749265283867944 22.895319880889168
6.331615865426472 6.115409483238303 21.570805646469047
5.612090543402614 6.577903218877271 20.244572433128344
4.825691817543852 7.072538471651045 18.941940775055386
2.367510165088642 9.725301316963073 18.945854563638303
1.897560776167718 10.506212798336112 20.190520885276246
2.698516819057327 9.047651539420443 17.660231633180171
1.477205782848825 10.361927227020136 17.719413027432378
0.183820209890020 11.737355350850033 17.924450040586969
-0.858949815922867 12.938881037509534 18.030828374835107
4.214095877055327 9.967105091936373 27.671618488312696
4.391300303143160 10.002027228073217 29.037059860480060
3.553059637775079 11.159704081693873 29.932595128527289
4.432400858186637 10.133010905853361 30.251714390207574
6.163289892622849 7.855806752476395 29.653428407032710
7.209966771150162 6.442512142466744 28.421949089277213
8.213266648622056 5.133863918800282 27.177182746505675
9.117035306270521 3.943388418134547 25.907487549224289
8.197879540434229 4.427000188733775 23.020167302915329
9.494707884247731 3.122340424016719 23.122698026241824
8.859509729601658 3.479222867364412 21.729368081657171
9.915680301890216 2.826418832205821 24.581644013062984
10.699808380985603 1.804042572615927 23.254138720766356
9.468694390206847 2.619418093565476 20.468088847999660
8.116629069827262 3.928602371496241 20.421899498299968
2.700117355071313 12.451305581347896 30.026876673158331
2.916779768448925 12.196121234985387 31.603223192437451
4.444048357511963 9.894052440755521 32.658177688954602
5.197938149636324 9.128457325887156 31.345756109276671
10.214595391550176 2.681457148395400 26.117029602602944
10.148406154172521 2.720206405765238 27.775631454968355
11.255697016310206 1.409563454554659 26.380430156943621
8.921461307564334 4.236209096178060 29.177093742207266
9.679456941391814 3.236319217499878 29.599547257625400
12.238598967831248 0.102671504006058 26.569481008488214
12.200440260833284 0.187650261821984 24.888731112127502
11.940290653973324 0.484226392565806 23.330609756852475
11.389461964772206 0.816142403367382 21.853623656037495
10.834364233271286 1.325515626080325 20.421899498299968
10.065082946609722 1.809234846386058 19.094480178117529
7.379763992901355 4.405164903201716 19.074935307073705
6.842405783718937 5.244183211692603 20.310155214730042
8.042837783338006 3.630966243303592 17.790410024850772
6.738182305142065 4.925284436003283 17.723357905719304
8.137400961036338 5.344639175413707 28.755662079127234
7.654285691441225 5.825882389190270 30.630147841769116
9.284666449331628 3.190843714943845 32.541052677018470
10.198220050259149 2.340079179019954 30.231216896797772
11.913327245473763 0.307954050204263 28.286426303574252
13.217143222802685 -1.204408596711728 26.679543915391399
13.068348116851100 -0.886493602840210 23.432335456444363
14.272909723413548 -2.236986320667507 23.544641977107219
13.899853829951944 -1.867820404043284 21.970078322289957
14.337577314670012 -2.534746496779768 25.151359256525772
15.341774325959747 -3.649656278082760 23.627747090261501
14.653384317782434 -2.730329303182796 20.441148631068032
13.433390649429985 -1.360570243933753 20.394942193579972
9.275813025586960 2.396051764445849 18.022950574336292
8.573623058711357 2.945815750649087 16.648447608695939
5.867577126569022 5.476809576169321 16.355639490663240
5.350662605907265 6.293705582341532 17.616822402114103
6.890718845043368 6.706019600376205 32.096158609273225
7.695275320110061 5.440405399024856 32.971905411224007
14.190722904691347 -2.533452472661915 26.859583571897314
13.523848119212625 -2.150241264675529 28.675084006797789
15.061129619847057 -3.880856718066816 26.990408732497684
16.527171384171496 -5.098809416676480 23.746654343520682
16.332405601359245 -4.717174754225811 22.131168469173208
12.760961460004848 -0.826900030972661 18.953681749582941
12.061182917148132 -0.059685750366174 20.452695665471786
11.898090286437643 -0.173884573540739 30.200403477099425
12.566610591394340 -1.385525719154634 30.660485340164907
15.971692283459662 -5.229952060029325 27.221242221114881
16.380678369755618 -5.362509391269803 25.442163816662134
-10.108475818285820 13.588341911009149 39.369748446689215
-9.998421705467983 12.446206496077700 39.735661756326337
-9.958780117297634 12.308917298060395 38.553403049441613
-9.821429591347314 12.440416714715262 37.170060435501952
8.374539767299392 3.433919697203499 7.283793037439775
9.158244905563290 2.596415758829224 8.820260599505859
9.444028404085428 2.256016056118538 10.175976802240575
9.890802700881171 1.609343900415567 11.729398066718685
12.890290220469707 -1.233542480424491 12.454795482253296
11.875766173797050 -0.273172365445733 13.890446266207357
13.390019445426601 -1.727209260932137 14.239654753914696
10.307688526261245 1.224859341789919 13.202934608020080
10.776338191841996 0.751691603352321 14.952307751281047
13.945868133819735 -2.219857591208564 15.817550845632912
15.032776905707218 -3.221095248380363 14.377224286269847
16.095987506456073 -4.290120559549069 13.035679102494706
19.499626834070881 -7.361987261042449 12.938580940911496
23.363010434254075 -10.567932819586956 10.577437125885590
25.099517274037431 -12.172644982203881 10.727035962991488
6.720228298327513 -5.038796569691302 47.793531020198117
6.205160717803024 -5.628725427536803 49.147144739801952
5.469579877130383 -4.781577133703490 50.249181400317511
7.441218487794157 -4.460539003432485 46.228544963673023
6.375717968615660 -3.575311368410937 47.198113509923417
8.294394168153133 -3.891643258492797 44.887274187581141
6.077847638852599 -6.147464011909133 55.700078626718863
6.587003685437628 -6.880945206724054 56.855668456874923
5.534614878822339 -5.286971561964607 54.330499709987649
7.221391216210051 -6.094795604693439 58.074938530994011
6.785567911609166 -4.301418688459741 57.675224192734120
14.482819161494325 -11.130537935253116 38.165056695654016
14.685456717118198 -9.589346155935996 37.932416811435218
-2.559829060898395 -11.212874506995279 8.339319986985478
0.726658053816999 10.093611599558015 8.945258200917134
2.014584156688437 8.902360751183327 9.697790057861100
0.273504653226688 15.958551406681059 37.319999787881926
0.198821988367290 16.127433287308893 35.499924723306812
-0.911784269687626 17.674080162981291 30.554221299338717
-9.019017689797304 9.788583624305423 24.546549096630173
-9.491136341501310 8.367615090135084 25.910827959905863
-8.953276826673193 8.261459364920318 24.805294447169157
-9.788281568106964 11.479733108560552 34.727092725029529
-9.757297560895880 10.098855005166014 35.153229337721733
2.192322965196176 9.014302997084632 15.074628953686803
3.145795633111658 7.861486221956358 12.528138674481228
2.169659959728992 8.740483707886829 11.042710873229044
1.120192912893851 11.008446923059594 47.602017418753263
0.564817473794632 15.084931176324266 29.037059860480060
3.316438451336370 -16.393284217849455 34.069829814794346
4.433832210405400 -16.134361594689839 35.369161546315055
0.397759225029752 -15.878678865148222 33.591480294600551
-0.246585503577333 -16.248036711430686 32.239911327294060
-1.809271076119650 -15.688356568330647 32.007521052810482
-5.938754171741209 -8.801622709259021 9.410077150309288
-4.130858921291788 -10.072500284852007 8.884484030252972
-0.286770565001277 -15.044716465801748 47.712921349115142
-0.308261609460364 -14.808510756676318 45.821829488037196
-1.038124945776369 -15.314956423784773 34.413364750880731
14.656734704741044 -8.078684279407145 37.086315295205679
14.513204832683066 -6.592058886797671 36.126934347238802
15.156609198660766 -6.063171128338126 31.655314706477938
14.183087492969683 -5.175213464274105 34.759118198791384
17.147696389799023 -8.478184737141529 28.832949518535759
17.022971087864331 -7.533074991077679 28.188492222805554
13.713413209440711 -3.818062980285546 33.334883590667772
18.082474167962172 -8.135260825982154 26.034098636852200
16.537075298010382 -6.394782849244358 27.650128278469158
-5.531178153656871 -7.629785152727879 7.300626486574738
6.867281068727580 4.657722852244516 7.849123326905866
0.737313065137044 15.321969107587625 34.188077472973532
0.033214883718508 16.289162025782261 30.891197142260076
0.604329458536419 15.499356851076191 31.371932188088543
0.337589392569369 15.700162880032511 29.927335839163497
1.185964731759839 14.710026569441732 32.107228889910786
1.497449480330589 14.219446009188925 30.910060684265282
1.775790313816417 13.627117112952607 29.787141869844987
1.177419095605027 14.314377264529698 29.329506393367922
-10.317407962377651 -3.147889831222582 9.250822648572575
3.115656373957511 8.301183959373825 42.444682337268226
3.048895832455879 7.420479860888447 43.806331800836531
3.797091671086013 6.895331843966864 42.434401684473613
2.464589917123923 8.017709597583277 45.169679866059354
3.010364198639747 6.524088037722576 45.179882044489197
4.526995394886362 5.457634532285164 42.410412546859966
4.636484367731345 6.401352962435968 40.944571274130460
4.270091138239053 4.519780604580901 43.789254889237043
5.156432410786274 4.030383327634612 42.359002790024896
5.467012450950007 5.966352137470460 39.352477682832777
4.624500094254844 7.322686836270633 39.421554800923147
5.822504209798255 2.674635560661679 42.482375976552660
6.083887040896970 3.649449412437065 40.985834526862860
5.646622928324809 1.562784624943963 43.936090177672568
6.622234657634706 1.188307577852540 42.643393514242646
7.236158358928662 3.209054512896517 39.290294647295816
6.425677977561253 4.468701206605258 39.152062811910447
4.612573830924172 8.299731208861690 37.873347497398555
4.425596775164922 9.194688136608219 36.049613847422691
4.096676477884026 10.255253325626356 34.499035208381933
2.049206668811602 13.158196677671617 35.478730478237523
2.622350867711384 12.541741320107686 33.342124057505615
1.594430508895592 13.990060485700873 33.861584311593155
3.451888221014981 11.298137534742066 33.356602801789734
1.913619706286274 9.526577614147909 45.101655832001114
1.946290966137907 8.683136251978171 46.397792567885844
1.586371688949596 9.477698116928499 47.390086030505827
1.987295052336459 7.902295644627330 47.477582006964681
1.761779948096118 7.257150126239375 50.120690187721529
1.873757133518843 7.094009521029626 48.974106732797175
2.007855049927788 5.976784267030306 51.049268478778075
10.806424531566011 -2.253090680793341 39.580373138268975
9.659793953227425 -1.395124209246919 40.693462856605215
11.532764707143938 -1.879726215367004 37.281655692396065
12.224132925395077 -1.790010911372120 34.434790147884790
11.157748987014319 -0.733394230435127 36.151526533375133
13.097642919111996 -2.511123619431590 32.007521052810482
14.613122776722600 -4.257015255021593 29.452938637610984
10.880804035505703 0.564401256336349 33.436184070622531
10.273854486058855 0.502981995975510 36.197185354592840
10.936486446719091 1.136973858372044 30.664276204278668
8.036287257165556 -2.465138757286027 44.229578691881123
-2.712160084534559 -14.272669959660508 35.694019232925640
2.511781421154534 4.015695810961280 50.889141039252301
4.776192949821757 -2.925411950662167 49.988738795694850
3.640626300816886 0.016059504951821 50.071227888331805
2.905115546049430 2.046516757582865 50.669738853488219
3.353709691296137 7.511837981364704 9.987700354366881
4.694417261505169 6.365701645062575 10.738275028510333
6.842613209513508 4.534835024447633 9.391943784957894
-6.356547145885377 -13.010661628034484 48.704097804919229
-5.379272850264171 -13.961536550429221 49.220280208552282
-3.552704635679119 -14.782290108706357 48.894162795987633
-2.184583371722238 -15.116061468934978 48.309776578341257
-6.133021173598580 -7.891256735980465 8.395497539559782
-8.627512096053808 -6.165848193957610 9.599205472728357
-9.404883471363933 -4.853545595954411 9.308649707213071
-7.342907900534549 -7.797112205882907 9.770981385869220
-4.467115978673812 -13.633886964483377 33.569830543431259
-3.643501307728735 -13.940972656518921 34.581059015428359
-4.050412472697754 -14.206173451881945 32.658177688954602
-3.789586148351308 -14.800097320410380 31.442916969569563
-2.931256662162529 -15.096849320108506 32.243592746859235
-5.170813182257769 -14.065766452891841 30.838341481963425
-2.215610677427756 -14.777392021062113 34.563234095578075
-2.130945525725812 -15.172680114423912 33.334883590667772
20.624022971389827 -12.364277266428282 25.726426316752406
16.540354974474916 -9.921777819476345 31.034383959907945
20.331210738041122 -11.094015625687961 25.061786897526453
19.001536262321910 -10.514545133869227 27.284010271264926
25.736705058199853 -13.113056507593228 12.350695931237592
24.905487674499529 -12.632828860229775 13.917878036713415
22.676106083010431 -10.299637396269778 12.431649461157017
21.970889214120707 -9.955491520288462 14.094366943622422
23.514980604320730 -11.372661272003816 13.964918001826106
20.639186788234195 -8.633296030182567 14.196445300131227
21.426307095531570 -9.633552203348239 15.722630086550467
24.023256321517305 -12.295582749115205 15.580283393488580
23.233018961947042 -11.840140816398316 17.482600384817985
24.428145162781512 -13.226287559749911 17.431262186156932
18.965241642244216 -7.083494813841059 14.530659945259394
20.733515247732271 -9.127654665158770 17.123052924858523
22.060566475969672 -10.495991897151150 17.059797665240687
3.980899465852703 7.599119582438322 17.604982159646969
3.131937070645827 8.247464830968669 16.355639490663240
5.955125987366519 7.908403951443017 31.977945219276108
5.991365524484186 7.591712597678775 34.055485255267911
5.341440737862692 7.876467290166849 35.827930482545447
6.137312275142066 6.583524127517966 36.077735829162570
10.638171795714275 1.108232768433967 17.936272793301061
11.908419978585295 -0.123940263316880 17.348311795109371
11.049898267949301 0.507225080399627 16.268583746551503
8.159195175939356 4.321018909836943 34.595316432725845
8.773423869071957 2.886696302931528 35.644644757866651
15.922500451217640 -4.079758426790105 20.606478291940867
15.359442207026746 -3.508260410976610 19.012368869240198
9.531006123658120 1.977952703709825 15.560516735090362
8.204750870165153 3.123759310329846 15.366859429013232
6.623004111805061 4.696799981256396 14.908919405206348
5.238208235356928 6.052495945986085 14.837939372286661
4.215143122393984 6.793298662835493 13.546136111679539
3.613515540371838 7.635833435918522 14.968087457891471
7.192957997065638 5.171988177373237 35.729273834474178
6.454941120156735 5.464429351151292 37.448913996955120
17.607029830782491 -6.581946714588963 23.875920657083633
18.891105790577871 -8.263278309797339 23.865166609426087
18.875420871694168 -7.882293462726687 22.168556043185273
19.690587626742651 -9.683053454166924 24.232462209052969
19.722225928534385 -8.641376451213684 20.598797115934659
18.367334446903097 -6.942344346281361 20.675570539668374
17.154812354360011 -5.565389499418445 20.660222698268363
13.181880374876302 -1.471969840018844 17.253483984477160
8.203501617028012 3.369298174984599 9.998751540689710
8.772343395254575 2.566176208784881 12.798952639173741
7.183042430530925 4.117821610752680 12.381524748735298
7.536842608387964 3.746750031867557 13.819935768389813
14.773134302219376 -3.015866476384231 17.443110303904362
16.641464491965582 -4.864229933735239 14.648783301896186
5.960479484587553 -2.082095840603113 46.577048044947681
5.324496326696988 -2.591333451127126 48.115554586764667
15.676353317556352 -8.997046967309796 34.808914012021226
16.798313734165923 -8.987795060904698 29.856114484414540
4.685006148677695 6.282532634709535 12.366108696442838
2.800142970169289 5.607566033732789 46.506040732482582
3.461668846060974 5.028068444778350 45.190083848428792
4.091142823579992 3.585809206124171 45.217286821959995
4.661419666732062 2.266195606618994 44.992783418554225
5.401964266227767 0.737509243666300 45.183282687452163
7.356133753709296 0.120096063980345 42.742714564200341
7.539970034735167 1.265917608781113 41.161157550260107
7.624988304642581 -0.973698546201059 43.389433466122391
8.568800866236476 -0.894153124837013 41.902904939146971
9.349331650285169 -0.307220869447285 39.956390760705546
9.548127143168749 0.377373320039666 38.466774750209659
8.522103597434164 0.885995129370478 39.911566843785231
9.458023666923582 1.689302009933257 36.369142312959674
8.151639304205093 2.823238270085322 37.855970896889644
7.784476842062603 1.951656740037055 39.901222029254043
2.279363667720141 6.289470984177562 48.014994913098398
6.791078636445415 -1.449053599453860 44.904294371358432
2.671694140219870 3.567210485110803 49.270120037845757
4.330407670855297 -1.469230341874981 49.329900526170341
3.969563809729434 0.225858495116710 48.246180601049296
5.824713197857248 5.301600084046250 11.759939030080909
7.100540977428169 4.218466203973206 10.723290196315752
22.707933934167801 -12.769124055250344 21.461054714690111
21.133377801883331 -11.073470763020669 22.906350927628733
22.346667782957393 -11.333742740915673 18.891049750390508
17.933630350758214 -5.986488984719036 14.940473709837535
19.014008879893488 -7.179819075302686 16.205271397605532
19.657028269092752 -7.975841754441688 17.470753956249297
20.198313500593013 -8.772041461918430 18.804877563570670
16.162314080069038 -4.322042743753657 17.553667885290537
20.842684628673275 -9.827968252858140 20.287014819872226
21.834666813631308 -11.174090920209682 20.736927328808395
17.879843048020884 -6.244374854589172 19.145280672996599
16.751951570380214 -4.898571325947144 16.284412002763275
17.313611634572506 -5.496675506402521 17.881093855153001
18.549438761664703 -6.871660846312770 17.853498657470279
5.671820431186182 -0.539280284761467 45.848965878215907
2.607317720074369 4.745199967435924 48.058579017675811
3.821346556947848 2.775728902514012 46.363953658284707
4.653783689464950 0.168926132735856 46.827065573620573
3.255127283198010 2.883411744917644 47.773382411604075
3.739064745193533 1.507059960316060 47.588569420602909
8.987721636141403 -13.617094143916450 2.814039723913808
5.960605012250080 -15.516480964183501 28.989128719546571
10.874932839668428 -15.342972359613984 19.246810158669859
12.265770089909921 -11.479512266660263 31.293365201636707
13.704509438398865 -13.822467000881872 19.830535593594242
6.928473347005650 -15.457501819767973 24.398715861199122
12.152834436748439 -12.913576960175208 5.504354943642365
9.407600112985561 -16.015418722960106 21.256126085386342
9.597032293118726 -13.736963320432736 31.855784191456799
4.524988672013532 -16.634284262795994 18.121398265591829
3.154520747097194 -16.256408413864701 19.157000514805343
7.838689406655427 -15.296573969575602 21.282731601740988
6.841348920442091 -15.819320688681353 29.318479327519306
7.070795350836505 -14.763238978456899 18.282730043958885
8.378439663394877 -15.363613773839099 26.202967109462300
11.612356924437576 -14.247151138920279 26.885176467626021
4.554843967423841 -15.661683120075526 15.532845071025930
9.293599606499171 -14.563848414125651 8.763282603338926
12.150841465585573 -13.605741184415322 9.088705188468737
7.425207967926216 -15.751133969196793 15.971828117527249
13.183983020024920 9.487556025515799 -5.085449218750005
1.338715764093477 -16.783599797097601 23.598862287370270
5.733818002198751 -16.486173764488839 17.790410024850772
6.980940660661028 -14.744755848673316 11.611197638769072
6.833417824571081 -15.010065677642613 28.509708426903341
16.720935473959077 -12.070388764535002 3.612792218434862
10.924859715067118 -14.593968841661029 16.327939885386524
8.595843400724210 -16.398089768387447 23.439591183618752
19.788067150373582 -11.590356064256662 4.552098931156451
1.747199059276754 -15.855850366171296 22.954118472171096
13.522263315658691 -15.191641019861189 13.898283291923168
11.187890611619991 -15.558926917135013 23.857995402830056
16.886515982274577 -13.582754587066107 14.814284794400773
12.487415708739222 -15.750840133536228 19.196057474417131
17.740501048879651 -13.824961401386885 16.814602846502382
18.036943660807378 -13.717522135771331 18.082025726265332
3.530241961130434 -14.876713857285385 26.999948192256230
10.433686012887561 -15.396499758809322 18.026889516958008
19.808177668359665 -12.835180763155117 13.698599576992821
8.388814237267582 -14.685296048978850 27.129865225103657
6.893927476228221 -16.744656211007236 24.539525311981532
11.976720549925327 -14.050239210239402 13.996287707590298
14.847442866932644 8.173902381047560 -5.865039062500006
13.108668356864017 -14.023873628018865 6.351998477839481
13.540319467435454 9.999346735495095 -5.263964843750005
6.963344430287394 -15.102356782700880 18.918455317204430
21.081116728955539 -12.385571320022564 12.204441120829982
7.834638742155540 -14.258351769620946 30.042519273282007
8.868131853063222 -15.320911904359978 19.616923264170278
9.032488185341494 -15.248975654844719 20.252290986551689
12.227657741753990 -13.183065600885637 8.902346863717403
8.266759140063758 -15.826561686489644 21.385239895379154
5.667801539954850 -16.949969503025038 19.927460058865609
9.113172178280328 -15.472519708595467 23.667426355309892
8.885145005364231 -14.458213363448630 15.031217289867872
2.624019166759635 -17.186115142344281 26.044065744449892
4.844286271495655 -14.920734677414329 8.080947821219430
6.932047104891226 -14.898498495920835 22.033827402730797
3.261507166693961 -14.861392989474984 28.140795275729975
7.285373569093217 -14.576444492167086 13.175686233481773
7.601511548960219 -15.790862902050767 17.130959136410393
4.837790490884693 -16.217303478077792 22.976146510979550
-0.175696197136540 -16.776385514598736 17.395714883056680
15.809369075223396 -13.756194851119186 19.942957684920206
5.892685059917850 -15.486675556661536 15.607958319414424
15.448351564396859 -12.770939593461819 8.830955476632834
4.640223598079142 -17.235687275062585 20.660222698268363
3.026025636541884 -16.340498824756803 21.902491685745726
14.547526752411914 -15.062644450781370 14.869483072977074
12.211212438114311 -14.159787001428844 23.181169924784317
10.566067974835731 -13.954527803927975 28.689504865263011
-0.568215236166669 -16.662467749308398 23.137324028416486
13.299596638983052 -13.435615544222285 28.698150724064440
12.902448002563313 -15.235376549836708 17.604982159646969
4.028496421747636 -16.799385201077531 30.117839634582296
6.624522418778718 -16.223581837201078 27.948628430645243
6.918280687386522 -14.334412147636137 25.900805348638471
3.390250983233789 -16.026084076217547 19.137466743811814
6.418089590276126 -15.134308424297341 13.191255762252350
12.758403707513921 -13.450529323280621 7.578439044947443
19.856736729049906 -13.990592175305943 20.916836773067146
14.219250983724516 -14.583919850962216 10.454382074429656
12.214337280692014 -13.955136453602682 8.080947821219430
-0.077517231083442 -16.405329269768998 22.067544064744737
12.334415019252589 -14.576414464137809 11.790495223454915
8.609052303161656 -14.901949128542936 17.458907014706327
15.840825870149112 -12.819454822194404 10.305677035783530
14.415814880943676 -12.728130561726868 26.766542457663405
13.783680163261542 -13.133547589767979 5.973178304843255
11.462252268650060 -15.206648195097364 23.901000521128672
16.171439868358028 -12.671831997343531 9.167865863323589
20.160281085511574 -12.051818019719009 5.467686016700385
1.793762998009087 -16.084746549576852 19.842172328700105
13.149763853739154 -14.732839329705374 25.820475900574678
6.690897092551268 -15.880183140344130 17.664177532067946
21.489979116068266 -11.468312488318027 5.031699233194129
10.804103938450401 -14.348322273816574 21.736907051940285
3.105167163022249 -15.527726936243544 19.640251026214184
2.309927354451347 -16.092570425638439 17.841670998651324
12.594545091319615 -13.231275344653083 28.764269609773542
10.965233354040189 -15.427383718662428 23.685448038352863
2.336869771872781 -15.495486295515169 27.085598994066608
13.846128452709262 -14.587700561434009 17.774634916810598
8.452860358141535 -15.337787481644446 13.315904066041522
0.514213696123633 -16.642672080248019 17.474702823032604
-0.141553653853323 -16.937484904040325 21.849862663759218
7.632199495286922 -13.798905111245157 35.351478760255965
8.814357258187195 -12.611357601392037 3.691290117605496
8.660005751885434 -15.789044988020594 27.233812234598261
14.103748616981987 -14.278417393616317 22.410865875160873
-0.073791506556496 -15.793872614040451 20.198244846577865
9.537579223145876 -14.756080776914603 28.605671077052090
19.870782022848836 -13.049660810573060 18.777446520329846
3.164167993615946 -16.414824717216870 12.709868857168381
3.474843916790749 -16.319270527920423 22.407147486088061
13.140203763150868 -10.559758608382147 30.208114393682372
1.083761747675463 -16.325290382675270 28.533027270922133
10.403540472177896 -13.067700648198857 7.807819020273622
5.147958606733106 -15.599366443668373 14.043356599144932
13.973580108734195 -14.644216014896145 24.196978714498488
4.033355048907227 -16.739642849464317 24.118780216825918
14.221277222266062 -13.960522924187975 17.766746928961666
11.587056441682620 -14.901685367555574 27.735933995985953
16.008510418387651 -12.678373433095347 27.566996132671264
-0.515072426795859 -16.376983205628413 24.732092889983868
10.250871885217585 -12.239869884000262 33.919085381412870
7.360030319238835 -15.625205675755726 15.224654538191240
13.714176911033320 -10.593828777458912 29.216051357832221
14.997575796079124 -13.369253476705712 22.581585252970253
11.039433440354982 -15.041097665401361 20.479631580799868
